# Generated with dmote-topography, version 0.2.0, settings {:i-c 0.35, :i-include true, :i-x-c 1.0, :i-x-mu 70.0, :i-x-sigma 30.0, :i-y-c 1.2, :i-y-mu 25.0, :i-y-sigma 30.0, :precision 2, :x-c 1.0, :x-extent 100, :x-mu 10.0, :x-sigma 40.0, :y-c 1.0, :y-extent 100, :y-mu 90.0, :y-sigma 45.0, :z-extent 100, :z-min 0.0}.
  0.00   0.00   0.00   0.00   0.00   0.00   0.00   0.00   0.00   0.00   0.00   0.00   0.00   0.00   0.00   0.00   0.00   0.00   0.00   0.00   0.00   0.00   0.00   0.00   0.00   0.00   0.00   0.00   0.00   0.00   0.00   0.00   0.00   0.00   0.00   0.00   0.00   0.00   0.00   0.00   0.00   0.00   0.00   0.00   0.00   0.00   0.00   0.00   0.00   0.00   0.00   0.00   0.00   0.00   0.00   0.00   0.00   0.00   0.00   0.00   0.00   0.00   0.00   0.00   0.00   0.00   0.00   0.00   0.00   0.00   0.00   0.00   0.00   0.00   0.00   0.00   0.00   0.00   0.00   0.00   0.00   0.00   0.00   0.00   0.00   0.00   0.00   0.00   0.00   0.00   0.00   0.00   0.00   0.00   0.00   0.00   0.00   0.00   0.00   0.00
  0.00   0.94   1.48   1.87   2.16   2.39   2.58   2.74   2.88   3.00   3.10   3.18   3.25   3.32   3.37   3.41   3.44   3.47   3.48   3.49   3.49   3.49   3.48   3.46   3.44   3.42   3.38   3.35   3.30   3.26   3.21   3.15   3.09   3.03   2.97   2.90   2.83   2.75   2.68   2.60   2.52   2.44   2.35   2.27   2.18   2.10   2.01   1.92   1.84   1.75   1.67   1.58   1.50   1.42   1.34   1.26   1.19   1.11   1.04   0.97   0.91   0.85   0.79   0.73   0.68   0.63   0.58   0.54   0.50   0.47   0.44   0.41   0.38   0.36   0.35   0.33   0.32   0.31   0.31   0.31   0.31   0.31   0.31   0.32   0.33   0.34   0.35   0.36   0.37   0.38   0.38   0.39   0.39   0.39   0.38   0.36   0.33   0.27   0.18   0.00
  0.00   1.50   2.37   2.98   3.44   3.81   4.12   4.38   4.60   4.78   4.94   5.08   5.20   5.29   5.37   5.44   5.49   5.53   5.56   5.57   5.58   5.57   5.56   5.53   5.50   5.45   5.40   5.34   5.27   5.20   5.12   5.03   4.93   4.83   4.73   4.62   4.50   4.38   4.26   4.14   4.01   3.87   3.74   3.60   3.47   3.33   3.19   3.05   2.91   2.77   2.64   2.50   2.37   2.24   2.11   1.98   1.86   1.74   1.63   1.52   1.41   1.31   1.22   1.13   1.04   0.96   0.89   0.82   0.75   0.70   0.65   0.60   0.56   0.53   0.50   0.47   0.46   0.44   0.43   0.43   0.43   0.43   0.44   0.45   0.46   0.48   0.49   0.51   0.53   0.54   0.55   0.56   0.57   0.57   0.56   0.53   0.48   0.41   0.27   0.00
  0.00   1.90   3.01   3.78   4.37   4.85   5.24   5.57   5.84   6.08   6.29   6.46   6.61   6.73   6.84   6.92   6.99   7.04   7.07   7.09   7.10   7.09   7.07   7.03   6.99   6.93   6.87   6.79   6.70   6.61   6.50   6.39   6.27   6.14   6.01   5.87   5.72   5.57   5.41   5.25   5.08   4.91   4.74   4.57   4.39   4.21   4.03   3.86   3.68   3.50   3.33   3.15   2.98   2.81   2.65   2.49   2.33   2.18   2.03   1.89   1.75   1.62   1.50   1.38   1.27   1.17   1.07   0.98   0.90   0.83   0.76   0.70   0.65   0.60   0.57   0.54   0.51   0.49   0.48   0.48   0.47   0.48   0.49   0.50   0.51   0.53   0.55   0.57   0.60   0.62   0.63   0.65   0.66   0.66   0.65   0.62   0.57   0.48   0.32   0.00
  0.00   2.23   3.52   4.43   5.12   5.68   6.13   6.52   6.84   7.12   7.36   7.57   7.74   7.89   8.01   8.11   8.19   8.24   8.28   8.31   8.31   8.30   8.28   8.24   8.19   8.12   8.04   7.95   7.85   7.74   7.61   7.48   7.34   7.19   7.03   6.86   6.69   6.51   6.32   6.13   5.94   5.74   5.54   5.33   5.12   4.91   4.70   4.49   4.28   4.08   3.87   3.66   3.46   3.26   3.07   2.88   2.69   2.51   2.34   2.17   2.01   1.85   1.71   1.57   1.44   1.31   1.20   1.09   1.00   0.91   0.83   0.76   0.69   0.64   0.59   0.56   0.53   0.50   0.49   0.48   0.48   0.48   0.49   0.50   0.52   0.54   0.56   0.59   0.62   0.64   0.66   0.68   0.69   0.70   0.69   0.66   0.61   0.52   0.35   0.00
  0.00   2.50   3.95   4.97   5.75   6.38   6.89   7.33   7.69   8.01   8.28   8.51   8.70   8.87   9.01   9.12   9.21   9.27   9.32   9.34   9.35   9.34   9.31   9.26   9.21   9.13   9.04   8.94   8.82   8.70   8.56   8.41   8.25   8.08   7.90   7.71   7.51   7.31   7.10   6.89   6.66   6.44   6.21   5.98   5.74   5.51   5.27   5.03   4.79   4.56   4.32   4.09   3.86   3.64   3.41   3.20   2.99   2.78   2.59   2.40   2.21   2.04   1.87   1.71   1.56   1.42   1.29   1.17   1.06   0.96   0.87   0.78   0.71   0.65   0.59   0.55   0.51   0.49   0.47   0.46   0.45   0.46   0.47   0.48   0.50   0.52   0.55   0.58   0.60   0.63   0.66   0.68   0.70   0.71   0.70   0.68   0.63   0.53   0.36   0.00
  0.00   2.74   4.34   5.46   6.31   7.00   7.56   8.04   8.44   8.79   9.09   9.34   9.55   9.74   9.89  10.01  10.11  10.18  10.23  10.26  10.26  10.25  10.22  10.17  10.11  10.03   9.93   9.82   9.69   9.55   9.40   9.23   9.05   8.87   8.67   8.46   8.24   8.02   7.79   7.55   7.31   7.06   6.80   6.55   6.29   6.03   5.77   5.50   5.24   4.98   4.72   4.46   4.21   3.96   3.72   3.48   3.25   3.02   2.80   2.59   2.39   2.19   2.01   1.83   1.67   1.51   1.36   1.23   1.10   0.99   0.89   0.79   0.71   0.64   0.58   0.53   0.49   0.46   0.43   0.42   0.41   0.42   0.42   0.44   0.46   0.48   0.51   0.54   0.57   0.61   0.64   0.66   0.68   0.70   0.70   0.68   0.63   0.53   0.36   0.00
  0.00   2.96   4.68   5.89   6.82   7.56   8.17   8.69   9.13   9.50   9.82  10.10  10.33  10.53  10.69  10.83  10.93  11.01  11.06  11.09  11.10  11.09  11.06  11.00  10.93  10.84  10.74  10.62  10.48  10.33  10.16   9.98   9.79   9.59   9.37   9.15   8.91   8.67   8.42   8.16   7.89   7.62   7.35   7.07   6.79   6.51   6.22   5.94   5.65   5.37   5.09   4.81   4.53   4.26   3.99   3.73   3.48   3.23   3.00   2.77   2.54   2.33   2.13   1.94   1.75   1.58   1.42   1.28   1.14   1.01   0.90   0.80   0.71   0.63   0.56   0.50   0.45   0.42   0.39   0.37   0.37   0.37   0.37   0.39   0.41   0.43   0.46   0.50   0.53   0.57   0.60   0.63   0.66   0.67   0.67   0.66   0.61   0.53   0.36   0.00
  0.00   3.17   5.01   6.30   7.29   8.09   8.74   9.29   9.76  10.16  10.51  10.80  11.05  11.27  11.44  11.59  11.70  11.78  11.84  11.88  11.88  11.87  11.84  11.78  11.70  11.61  11.50  11.37  11.22  11.06  10.88  10.68  10.48  10.26  10.03   9.79   9.54   9.28   9.01   8.73   8.45   8.16   7.86   7.56   7.26   6.96   6.65   6.34   6.04   5.73   5.43   5.13   4.83   4.54   4.26   3.98   3.70   3.44   3.18   2.93   2.69   2.46   2.24   2.04   1.84   1.65   1.48   1.32   1.17   1.03   0.91   0.80   0.70   0.61   0.53   0.47   0.42   0.38   0.35   0.33   0.31   0.31   0.32   0.33   0.35   0.38   0.41   0.44   0.48   0.52   0.55   0.59   0.62   0.64   0.64   0.63   0.59   0.51   0.35   0.00
  0.00   3.36   5.31   6.69   7.74   8.59   9.28   9.87  10.37  10.80  11.16  11.48  11.74  11.97  12.16  12.31  12.43  12.52  12.58  12.62  12.63  12.62  12.58  12.52  12.44  12.34  12.22  12.08  11.92  11.75  11.56  11.36  11.14  10.91  10.66  10.40  10.14   9.86   9.57   9.28   8.98   8.67   8.35   8.03   7.71   7.39   7.06   6.74   6.41   6.08   5.76   5.44   5.12   4.81   4.51   4.21   3.92   3.63   3.36   3.09   2.84   2.59   2.36   2.13   1.92   1.72   1.54   1.36   1.20   1.05   0.92   0.80   0.69   0.59   0.51   0.44   0.38   0.33   0.30   0.28   0.26   0.26   0.26   0.27   0.29   0.32   0.35   0.39   0.42   0.46   0.50   0.54   0.57   0.60   0.61   0.60   0.57   0.49   0.34   0.00
  0.00   3.55   5.61   7.06   8.17   9.07   9.80  10.42  10.95  11.40  11.79  12.12  12.41  12.65  12.85  13.01  13.14  13.24  13.30  13.34  13.35  13.34  13.30  13.24  13.15  13.05  12.92  12.77  12.61  12.43  12.23  12.01  11.78  11.53  11.28  11.00  10.72  10.43  10.12   9.81   9.49   9.17   8.83   8.50   8.16   7.81   7.47   7.12   6.77   6.43   6.09   5.75   5.41   5.08   4.76   4.44   4.13   3.83   3.54   3.26   2.98   2.72   2.47   2.23   2.01   1.80   1.60   1.41   1.24   1.08   0.93   0.80   0.68   0.58   0.49   0.41   0.35   0.30   0.26   0.23   0.21   0.20   0.21   0.22   0.23   0.26   0.29   0.33   0.37   0.41   0.45   0.49   0.52   0.55   0.57   0.57   0.54   0.47   0.32   0.00
  0.00   3.73   5.90   7.42   8.59   9.53  10.31  10.96  11.52  12.00  12.41  12.76  13.06  13.31  13.52  13.69  13.83  13.93  14.01  14.05  14.06  14.05  14.01  13.94  13.85  13.74  13.61  13.46  13.28  13.09  12.88  12.65  12.41  12.15  11.88  11.59  11.30  10.99  10.67  10.34  10.00   9.66   9.31   8.96   8.60   8.23   7.87   7.51   7.14   6.78   6.42   6.06   5.71   5.36   5.01   4.68   4.35   4.03   3.72   3.42   3.14   2.86   2.59   2.34   2.10   1.87   1.66   1.46   1.28   1.11   0.95   0.81   0.69   0.57   0.48   0.39   0.32   0.26   0.22   0.19   0.16   0.15   0.15   0.16   0.18   0.20   0.23   0.27   0.31   0.35   0.40   0.44   0.48   0.51   0.53   0.53   0.51   0.45   0.31   0.00
  0.00   3.91   6.18   7.78   9.01  10.00  10.81  11.50  12.08  12.58  13.02  13.38  13.70  13.97  14.19  14.37  14.52  14.62  14.70  14.74  14.76  14.75  14.70  14.64  14.55  14.43  14.29  14.13  13.95  13.75  13.53  13.29  13.04  12.77  12.48  12.18  11.87  11.55  11.21  10.87  10.52  10.16   9.79   9.42   9.04   8.66   8.28   7.89   7.51   7.13   6.75   6.37   6.00   5.64   5.28   4.92   4.58   4.24   3.92   3.60   3.30   3.00   2.72   2.46   2.20   1.96   1.74   1.53   1.33   1.15   0.98   0.83   0.70   0.58   0.47   0.38   0.30   0.24   0.19   0.15   0.12   0.11   0.11   0.11   0.13   0.15   0.18   0.22   0.26   0.30   0.35   0.39   0.43   0.46   0.49   0.50   0.48   0.42   0.29   0.00
  0.00   4.08   6.46   8.14   9.42  10.46  11.31  12.03  12.64  13.17  13.62  14.01  14.34  14.62  14.85  15.05  15.20  15.31  15.39  15.44  15.46  15.44  15.40  15.33  15.24  15.12  14.98  14.81  14.62  14.41  14.18  13.93  13.67  13.39  13.09  12.78  12.45  12.11  11.76  11.40  11.03  10.66  10.27   9.88   9.49   9.09   8.69   8.29   7.89   7.49   7.09   6.70   6.31   5.93   5.55   5.18   4.82   4.46   4.12   3.79   3.47   3.16   2.87   2.58   2.32   2.06   1.83   1.60   1.39   1.20   1.03   0.87   0.72   0.59   0.48   0.38   0.29   0.22   0.17   0.12   0.09   0.07   0.07   0.07   0.08   0.11   0.13   0.17   0.21   0.25   0.30   0.34   0.39   0.42   0.45   0.46   0.45   0.40   0.28   0.00
  0.00   4.26   6.74   8.49   9.84  10.91  11.81  12.56  13.20  13.75  14.23  14.63  14.98  15.27  15.52  15.72  15.88  16.00  16.09  16.14  16.16  16.15  16.11  16.03  15.94  15.81  15.66  15.49  15.30  15.08  14.84  14.58  14.31  14.01  13.70  13.38  13.04  12.69  12.32  11.95  11.56  11.17  10.77  10.36   9.95   9.54   9.12   8.70   8.28   7.87   7.45   7.04   6.63   6.23   5.83   5.45   5.07   4.70   4.34   3.99   3.66   3.33   3.02   2.73   2.44   2.18   1.93   1.69   1.47   1.27   1.08   0.91   0.75   0.62   0.49   0.39   0.29   0.22   0.15   0.11   0.07   0.05   0.04   0.04   0.05   0.07   0.09   0.13   0.17   0.21   0.26   0.30   0.35   0.38   0.41   0.43   0.42   0.38   0.27   0.00
  0.00   4.44   7.03   8.85  10.25  11.38  12.31  13.10  13.77  14.34  14.84  15.26  15.63  15.93  16.19  16.40  16.57  16.70  16.79  16.85  16.87  16.86  16.82  16.74  16.64  16.52  16.36  16.18  15.98  15.76  15.51  15.24  14.96  14.65  14.33  13.99  13.64  13.27  12.89  12.50  12.10  11.69  11.28  10.85  10.43  10.00   9.56   9.12   8.69   8.25   7.82   7.39   6.97   6.55   6.14   5.73   5.33   4.95   4.57   4.21   3.86   3.52   3.19   2.88   2.59   2.31   2.04   1.80   1.56   1.35   1.15   0.97   0.80   0.66   0.52   0.41   0.31   0.22   0.16   0.10   0.06   0.03   0.02   0.01   0.02   0.04   0.06   0.09   0.13   0.18   0.22   0.27   0.31   0.35   0.38   0.40   0.40   0.36   0.25   0.00
  0.00   4.62   7.31   9.21  10.67  11.85  12.82  13.64  14.34  14.94  15.46  15.90  16.28  16.60  16.87  17.10  17.27  17.41  17.51  17.57  17.59  17.58  17.54  17.46  17.36  17.23  17.07  16.89  16.68  16.45  16.19  15.91  15.62  15.30  14.97  14.62  14.25  13.87  13.48  13.07  12.66  12.23  11.80  11.36  10.92  10.47  10.02   9.56   9.11   8.66   8.21   7.76   7.32   6.88   6.45   6.03   5.62   5.22   4.82   4.44   4.08   3.72   3.38   3.06   2.75   2.45   2.18   1.92   1.67   1.44   1.23   1.04   0.87   0.71   0.57   0.44   0.34   0.25   0.17   0.11   0.06   0.03   0.01   0.00   0.00   0.02   0.04   0.07   0.11   0.15   0.19   0.24   0.28   0.32   0.36   0.38   0.37   0.34   0.24   0.00
  0.00   4.80   7.61   9.58  11.10  12.32  13.33  14.19  14.92  15.54  16.08  16.55  16.95  17.28  17.57  17.80  17.99  18.13  18.23  18.30  18.32  18.32  18.27  18.20  18.09  17.96  17.80  17.61  17.39  17.15  16.89  16.60  16.30  15.97  15.62  15.26  14.88  14.49  14.08  13.66  13.23  12.79  12.34  11.89  11.43  10.96  10.49  10.02   9.55   9.08   8.62   8.15   7.69   7.24   6.79   6.35   5.92   5.50   5.09   4.70   4.32   3.95   3.59   3.25   2.93   2.62   2.33   2.05   1.80   1.56   1.34   1.13   0.95   0.78   0.63   0.50   0.38   0.28   0.20   0.13   0.08   0.04   0.01   0.00   0.00   0.01   0.03   0.06   0.09   0.13   0.17   0.22   0.26   0.30   0.34   0.36   0.36   0.33   0.23   0.00
  0.00   4.99   7.90   9.96  11.53  12.81  13.86  14.75  15.51  16.16  16.73  17.21  17.63  17.98  18.28  18.52  18.72  18.87  18.98  19.04  19.07  19.07  19.03  18.95  18.84  18.71  18.54  18.34  18.12  17.88  17.60  17.31  16.99  16.66  16.30  15.92  15.53  15.13  14.71  14.27  13.83  13.37  12.91  12.44  11.96  11.48  10.99  10.50  10.01   9.53   9.04   8.56   8.08   7.61   7.15   6.69   6.25   5.81   5.39   4.97   4.57   4.19   3.82   3.46   3.12   2.80   2.50   2.21   1.94   1.69   1.46   1.24   1.05   0.87   0.71   0.57   0.44   0.33   0.24   0.17   0.11   0.06   0.03   0.01   0.01   0.01   0.03   0.05   0.08   0.12   0.16   0.20   0.25   0.29   0.32   0.34   0.35   0.32   0.23   0.00
  0.00   5.18   8.20  10.34  11.98  13.30  14.40  15.32  16.11  16.79  17.38  17.88  18.32  18.69  19.00  19.25  19.46  19.62  19.73  19.81  19.84  19.84  19.80  19.72  19.61  19.47  19.30  19.10  18.87  18.62  18.34  18.04  17.71  17.36  16.99  16.61  16.20  15.78  15.35  14.90  14.44  13.97  13.49  13.00  12.51  12.01  11.51  11.00  10.50   9.99   9.49   8.99   8.50   8.01   7.53   7.05   6.59   6.14   5.70   5.27   4.85   4.45   4.07   3.70   3.34   3.01   2.69   2.39   2.11   1.84   1.60   1.37   1.16   0.97   0.80   0.65   0.52   0.40   0.30   0.22   0.15   0.10   0.06   0.04   0.03   0.03   0.04   0.06   0.09   0.12   0.16   0.20   0.24   0.28   0.31   0.34   0.34   0.31   0.22   0.00
  0.00   5.37   8.51  10.73  12.43  13.81  14.94  15.91  16.73  17.44  18.05  18.58  19.03  19.41  19.74  20.01  20.22  20.39  20.51  20.59  20.63  20.63  20.59  20.51  20.40  20.26  20.08  19.88  19.65  19.38  19.10  18.78  18.45  18.09  17.71  17.31  16.90  16.46  16.02  15.55  15.08  14.59  14.10  13.59  13.08  12.57  12.05  11.53  11.01  10.48   9.96   9.45   8.93   8.43   7.93   7.44   6.96   6.49   6.03   5.59   5.15   4.74   4.34   3.95   3.58   3.23   2.90   2.58   2.29   2.01   1.76   1.52   1.30   1.10   0.92   0.76   0.61   0.49   0.38   0.29   0.21   0.16   0.11   0.08   0.07   0.06   0.07   0.08   0.11   0.14   0.17   0.21   0.25   0.29   0.32   0.34   0.34   0.31   0.22   0.00
  0.00   5.57   8.83  11.13  12.90  14.32  15.51  16.51  17.36  18.10  18.73  19.28  19.75  20.16  20.50  20.78  21.00  21.18  21.31  21.39  21.44  21.44  21.40  21.32  21.21  21.07  20.89  20.68  20.44  20.17  19.88  19.56  19.21  18.84  18.45  18.04  17.62  17.17  16.71  16.23  15.74  15.24  14.73  14.21  13.68  13.15  12.61  12.08  11.54  11.00  10.46   9.93   9.40   8.87   8.36   7.85   7.35   6.86   6.39   5.93   5.48   5.05   4.63   4.23   3.84   3.48   3.13   2.80   2.49   2.20   1.93   1.68   1.45   1.24   1.05   0.88   0.73   0.59   0.47   0.38   0.29   0.23   0.18   0.14   0.12   0.11   0.11   0.12   0.14   0.16   0.19   0.23   0.26   0.30   0.33   0.34   0.34   0.31   0.22   0.00
  0.00   5.78   9.15  11.54  13.37  14.85  16.08  17.12  18.01  18.78  19.44  20.01  20.50  20.92  21.27  21.57  21.81  21.99  22.13  22.22  22.26  22.27  22.23  22.16  22.04  21.90  21.72  21.50  21.26  20.98  20.68  20.35  20.00  19.62  19.22  18.80  18.36  17.90  17.42  16.93  16.43  15.91  15.38  14.85  14.31  13.76  13.20  12.65  12.09  11.53  10.98  10.43   9.88   9.34   8.81   8.28   7.77   7.26   6.77   6.29   5.83   5.38   4.94   4.53   4.13   3.75   3.39   3.04   2.72   2.42   2.13   1.87   1.63   1.41   1.20   1.02   0.86   0.71   0.59   0.48   0.39   0.31   0.26   0.21   0.18   0.17   0.16   0.17   0.18   0.20   0.23   0.26   0.29   0.32   0.34   0.36   0.36   0.32   0.23   0.00
  0.00   5.99   9.49  11.96  13.86  15.40  16.67  17.75  18.67  19.47  20.16  20.75  21.26  21.70  22.07  22.38  22.63  22.82  22.97  23.07  23.12  23.12  23.09  23.01  22.90  22.75  22.57  22.35  22.10  21.82  21.51  21.17  20.81  20.42  20.01  19.58  19.12  18.65  18.16  17.66  17.14  16.61  16.07  15.51  14.95  14.39  13.82  13.25  12.67  12.10  11.53  10.96  10.39   9.83   9.28   8.74   8.21   7.68   7.18   6.68   6.20   5.73   5.28   4.85   4.44   4.04   3.66   3.31   2.97   2.65   2.36   2.08   1.83   1.59   1.38   1.18   1.01   0.85   0.72   0.60   0.50   0.42   0.35   0.30   0.27   0.24   0.23   0.23   0.24   0.25   0.27   0.30   0.33   0.35   0.37   0.38   0.37   0.33   0.24   0.00
  0.00   6.20   9.83  12.39  14.36  15.95  17.28  18.40  19.35  20.18  20.90  21.51  22.05  22.50  22.89  23.21  23.47  23.68  23.83  23.93  23.99  24.00  23.97  23.90  23.78  23.63  23.44  23.22  22.97  22.68  22.36  22.02  21.65  21.25  20.83  20.38  19.92  19.43  18.93  18.41  17.88  17.33  16.77  16.20  15.63  15.05  14.46  13.87  13.28  12.69  12.10  11.51  10.93  10.35   9.78   9.22   8.67   8.13   7.61   7.09   6.59   6.11   5.65   5.20   4.77   4.36   3.97   3.59   3.24   2.91   2.60   2.31   2.04   1.80   1.57   1.37   1.18   1.02   0.87   0.74   0.63   0.54   0.47   0.41   0.36   0.33   0.31   0.31   0.31   0.32   0.33   0.35   0.38   0.40   0.41   0.41   0.40   0.35   0.25   0.00
  0.00   6.42  10.18  12.83  14.87  16.52  17.90  19.06  20.05  20.91  21.65  22.30  22.85  23.33  23.73  24.06  24.34  24.55  24.72  24.83  24.89  24.90  24.87  24.80  24.69  24.53  24.34  24.12  23.86  23.57  23.24  22.89  22.51  22.10  21.67  21.21  20.74  20.24  19.72  19.19  18.64  18.08  17.51  16.92  16.33  15.73  15.13  14.52  13.91  13.30  12.69  12.09  11.49  10.89  10.31   9.73   9.16   8.60   8.06   7.53   7.02   6.52   6.03   5.57   5.12   4.70   4.29   3.90   3.54   3.19   2.87   2.56   2.28   2.02   1.79   1.57   1.37   1.20   1.04   0.90   0.78   0.68   0.60   0.53   0.48   0.44   0.41   0.40   0.39   0.40   0.41   0.42   0.43   0.45   0.46   0.46   0.43   0.38   0.26   0.00
  0.00   6.65  10.53  13.28  15.40  17.11  18.53  19.73  20.77  21.66  22.43  23.10  23.67  24.17  24.59  24.94  25.23  25.45  25.62  25.74  25.81  25.83  25.80  25.73  25.62  25.46  25.27  25.04  24.78  24.48  24.15  23.79  23.40  22.98  22.54  22.07  21.58  21.07  20.54  19.99  19.43  18.85  18.27  17.67  17.06  16.44  15.82  15.20  14.57  13.94  13.32  12.69  12.08  11.46  10.86  10.26   9.68   9.10   8.54   7.99   7.46   6.94   6.45   5.96   5.50   5.06   4.64   4.23   3.85   3.49   3.16   2.84   2.54   2.27   2.02   1.79   1.58   1.40   1.23   1.08   0.95   0.84   0.75   0.67   0.61   0.56   0.53   0.51   0.49   0.49   0.49   0.50   0.51   0.51   0.51   0.50   0.48   0.41   0.28   0.00
  0.00   6.88  10.90  13.74  15.94  17.71  19.18  20.43  21.50  22.42  23.22  23.92  24.52  25.03  25.47  25.84  26.14  26.38  26.56  26.68  26.75  26.78  26.75  26.68  26.57  26.42  26.22  25.99  25.72  25.42  25.08  24.71  24.31  23.88  23.43  22.95  22.45  21.93  21.39  20.82  20.25  19.66  19.05  18.44  17.81  17.18  16.54  15.90  15.26  14.61  13.97  13.33  12.69  12.06  11.44  10.82  10.22   9.62   9.05   8.48   7.93   7.40   6.88   6.38   5.90   5.44   5.01   4.59   4.19   3.82   3.47   3.14   2.83   2.54   2.28   2.04   1.82   1.62   1.44   1.28   1.14   1.02   0.92   0.83   0.76   0.70   0.66   0.63   0.61   0.60   0.59   0.59   0.59   0.59   0.58   0.56   0.52   0.45   0.31   0.00
  0.00   7.11  11.27  14.22  16.49  18.32  19.85  21.14  22.25  23.21  24.04  24.76  25.38  25.92  26.37  26.75  27.07  27.32  27.51  27.64  27.72  27.75  27.73  27.66  27.55  27.39  27.20  26.96  26.69  26.38  26.03  25.66  25.25  24.82  24.35  23.86  23.35  22.81  22.26  21.68  21.09  20.48  19.86  19.23  18.59  17.94  17.29  16.63  15.97  15.30  14.64  13.98  13.33  12.68  12.04  11.41  10.78  10.17   9.58   8.99   8.42   7.87   7.34   6.83   6.33   5.85   5.40   4.97   4.55   4.17   3.80   3.45   3.13   2.83   2.56   2.30   2.07   1.86   1.67   1.50   1.35   1.21   1.10   1.00   0.92   0.86   0.81   0.77   0.74   0.72   0.70   0.69   0.68   0.68   0.66   0.63   0.58   0.49   0.33   0.00
  0.00   7.35  11.66  14.70  17.05  18.95  20.53  21.86  23.01  24.01  24.87  25.62  26.26  26.82  27.30  27.69  28.02  28.28  28.49  28.63  28.71  28.75  28.73  28.66  28.55  28.40  28.20  27.96  27.68  27.37  27.02  26.63  26.22  25.77  25.30  24.80  24.27  23.72  23.15  22.57  21.96  21.34  20.70  20.05  19.40  18.73  18.06  17.38  16.70  16.02  15.34  14.67  13.99  13.32  12.67  12.01  11.37  10.75  10.13   9.53   8.94   8.37   7.82   7.29   6.78   6.29   5.82   5.37   4.94   4.53   4.15   3.79   3.46   3.14   2.85   2.59   2.34   2.12   1.91   1.73   1.57   1.43   1.30   1.20   1.11   1.03   0.97   0.92   0.88   0.85   0.83   0.81   0.79   0.77   0.75   0.71   0.65   0.54   0.36   0.00
  0.00   7.60  12.05  15.20  17.62  19.59  21.22  22.61  23.80  24.83  25.72  26.50  27.17  27.75  28.24  28.65  29.00  29.27  29.48  29.63  29.73  29.77  29.75  29.69  29.58  29.42  29.22  28.98  28.70  28.38  28.02  27.63  27.21  26.75  26.27  25.76  25.22  24.66  24.08  23.47  22.85  22.22  21.57  20.90  20.23  19.55  18.86  18.16  17.46  16.77  16.07  15.37  14.68  14.00  13.32  12.65  11.99  11.34  10.71  10.09   9.49   8.90   8.33   7.78   7.25   6.74   6.26   5.79   5.35   4.93   4.53   4.15   3.80   3.48   3.17   2.89   2.63   2.40   2.18   1.99   1.81   1.66   1.52   1.41   1.31   1.22   1.15   1.09   1.04   1.00   0.97   0.94   0.91   0.88   0.84   0.79   0.72   0.60   0.40   0.00
  0.00   7.85  12.45  15.70  18.21  20.24  21.93  23.36  24.60  25.66  26.59  27.39  28.09  28.69  29.20  29.63  29.99  30.28  30.50  30.66  30.76  30.81  30.80  30.74  30.63  30.47  30.27  30.03  29.74  29.41  29.05  28.65  28.22  27.76  27.26  26.74  26.19  25.62  25.02  24.41  23.77  23.12  22.45  21.77  21.08  20.38  19.68  18.97  18.25  17.53  16.82  16.10  15.39  14.69  13.99  13.31  12.63  11.96  11.31  10.67  10.05   9.45   8.86   8.29   7.75   7.22   6.72   6.24   5.78   5.34   4.93   4.54   4.17   3.83   3.51   3.22   2.94   2.69   2.47   2.26   2.07   1.91   1.76   1.63   1.52   1.42   1.34   1.27   1.21   1.16   1.12   1.08   1.04   1.00   0.95   0.89   0.80   0.66   0.44   0.00
  0.00   8.11  12.85  16.21  18.81  20.90  22.65  24.14  25.41  26.51  27.47  28.30  29.03  29.65  30.18  30.63  31.01  31.31  31.54  31.71  31.82  31.87  31.87  31.81  31.70  31.54  31.34  31.09  30.80  30.47  30.10  29.70  29.26  28.79  28.28  27.75  27.19  26.60  25.99  25.36  24.71  24.05  23.36  22.67  21.96  21.25  20.52  19.79  19.06  18.33  17.59  16.86  16.13  15.41  14.69  13.99  13.29  12.61  11.94  11.28  10.64  10.02   9.41   8.83   8.26   7.72   7.20   6.70   6.23   5.77   5.34   4.94   4.56   4.20   3.87   3.56   3.27   3.01   2.77   2.55   2.35   2.18   2.02   1.88   1.75   1.64   1.55   1.47   1.40   1.34   1.29   1.23   1.19   1.13   1.07   0.99   0.89   0.73   0.48   0.00
  0.00   8.37  13.27  16.74  19.42  21.58  23.39  24.92  26.24  27.38  28.37  29.23  29.98  30.63  31.18  31.65  32.04  32.36  32.60  32.78  32.90  32.95  32.95  32.90  32.79  32.64  32.43  32.18  31.89  31.55  31.18  30.77  30.32  29.84  29.32  28.78  28.21  27.61  26.99  26.34  25.68  25.00  24.30  23.59  22.86  22.13  21.39  20.64  19.89  19.14  18.39  17.64  16.89  16.15  15.41  14.69  13.97  13.27  12.58  11.91  11.25  10.61   9.99   9.39   8.80   8.24   7.70   7.19   6.70   6.23   5.78   5.36   4.97   4.59   4.25   3.92   3.62   3.35   3.09   2.86   2.65   2.46   2.29   2.14   2.00   1.88   1.78   1.68   1.60   1.53   1.46   1.40   1.34   1.27   1.20   1.10   0.98   0.80   0.53   0.00
  0.00   8.63  13.69  17.27  20.03  22.27  24.14  25.72  27.08  28.26  29.29  30.18  30.96  31.63  32.20  32.69  33.09  33.42  33.68  33.87  33.99  34.06  34.06  34.01  33.90  33.75  33.54  33.29  32.99  32.66  32.27  31.86  31.40  30.91  30.38  29.83  29.25  28.64  28.00  27.34  26.67  25.97  25.26  24.53  23.79  23.04  22.28  21.52  20.75  19.98  19.21  18.44  17.67  16.91  16.16  15.41  14.68  13.96  13.25  12.56  11.88  11.22  10.58   9.96   9.36   8.78   8.23   7.70   7.19   6.70   6.24   5.80   5.39   5.01   4.64   4.31   3.99   3.70   3.43   3.19   2.96   2.76   2.58   2.41   2.26   2.13   2.01   1.91   1.82   1.73   1.65   1.58   1.50   1.42   1.33   1.22   1.08   0.88   0.57   0.00
  0.00   8.90  14.12  17.81  20.66  22.97  24.89  26.53  27.94  29.16  30.22  31.14  31.94  32.64  33.23  33.74  34.16  34.50  34.77  34.97  35.11  35.18  35.19  35.14  35.03  34.88  34.67  34.42  34.12  33.78  33.39  32.96  32.50  32.00  31.47  30.90  30.31  29.68  29.04  28.37  27.67  26.96  26.23  25.49  24.73  23.97  23.19  22.41  21.62  20.83  20.05  19.26  18.47  17.69  16.92  16.16  15.41  14.67  13.94  13.23  12.53  11.86  11.20  10.56   9.94   9.35   8.77   8.22   7.70   7.20   6.72   6.27   5.84   5.44   5.06   4.70   4.38   4.07   3.79   3.53   3.29   3.08   2.88   2.70   2.54   2.40   2.27   2.15   2.04   1.95   1.86   1.77   1.68   1.59   1.48   1.35   1.19   0.97   0.63   0.00
  0.00   9.17  14.55  18.36  21.30  23.68  25.66  27.35  28.80  30.06  31.16  32.11  32.95  33.66  34.28  34.81  35.24  35.60  35.88  36.09  36.24  36.31  36.33  36.28  36.18  36.03  35.82  35.57  35.26  34.91  34.52  34.09  33.62  33.11  32.57  31.99  31.39  30.75  30.09  29.41  28.70  27.97  27.23  26.47  25.70  24.91  24.12  23.32  22.52  21.71  20.90  20.10  19.29  18.50  17.71  16.92  16.15  15.39  14.65  13.92  13.20  12.51  11.83  11.18  10.54   9.93   9.34   8.77   8.22   7.71   7.21   6.74   6.30   5.88   5.49   5.12   4.78   4.46   4.16   3.89   3.64   3.41   3.20   3.01   2.83   2.68   2.53   2.40   2.29   2.18   2.07   1.97   1.87   1.76   1.64   1.49   1.31   1.06   0.68   0.00
  0.00   9.45  14.99  18.91  21.94  24.40  26.44  28.19  29.68  30.98  32.11  33.10  33.96  34.70  35.34  35.89  36.34  36.71  37.01  37.23  37.38  37.46  37.49  37.45  37.35  37.19  36.99  36.73  36.42  36.07  35.67  35.23  34.76  34.24  33.69  33.10  32.48  31.84  31.16  30.47  29.74  29.00  28.24  27.47  26.68  25.88  25.07  24.25  23.43  22.61  21.78  20.96  20.13  19.32  18.51  17.71  16.92  16.14  15.37  14.63  13.89  13.18  12.48  11.81  11.15  10.52   9.92   9.33   8.77   8.23   7.72   7.24   6.78   6.35   5.94   5.55   5.19   4.86   4.55   4.26   4.00   3.75   3.53   3.32   3.14   2.97   2.81   2.67   2.54   2.41   2.30   2.18   2.06   1.94   1.80   1.64   1.43   1.15   0.74   0.00
  0.00   9.73  15.43  19.47  22.60  25.12  27.23  29.03  30.57  31.91  33.08  34.10  34.99  35.75  36.42  36.98  37.45  37.84  38.15  38.38  38.54  38.63  38.66  38.62  38.53  38.37  38.17  37.91  37.60  37.24  36.84  36.39  35.91  35.38  34.82  34.22  33.60  32.94  32.25  31.54  30.81  30.05  29.27  28.48  27.68  26.86  26.03  25.20  24.36  23.52  22.67  21.83  20.99  20.16  19.33  18.51  17.70  16.90  16.12  15.35  14.60  13.87  13.15  12.46  11.79  11.14  10.51   9.91   9.33   8.78   8.25   7.75   7.27   6.82   6.40   6.00   5.63   5.28   4.95   4.65   4.37   4.11   3.87   3.66   3.46   3.27   3.10   2.95   2.80   2.66   2.53   2.40   2.27   2.13   1.97   1.79   1.56   1.25   0.81   0.00
  0.00  10.01  15.88  20.04  23.25  25.86  28.03  29.88  31.47  32.85  34.05  35.11  36.02  36.82  37.50  38.08  38.57  38.98  39.30  39.54  39.71  39.81  39.84  39.81  39.72  39.57  39.36  39.10  38.79  38.42  38.02  37.57  37.07  36.54  35.97  35.36  34.72  34.05  33.35  32.63  31.88  31.11  30.32  29.51  28.69  27.86  27.02  26.16  25.31  24.44  23.58  22.72  21.86  21.01  20.16  19.32  18.49  17.68  16.88  16.09  15.32  14.57  13.84  13.12  12.43  11.77  11.12  10.50   9.91   9.34   8.79   8.28   7.78   7.32   6.88   6.46   6.07   5.71   5.37   5.05   4.76   4.49   4.23   4.00   3.79   3.59   3.41   3.24   3.08   2.93   2.78   2.63   2.48   2.33   2.15   1.95   1.69   1.36   0.87   0.00
  0.00  10.30  16.33  20.61  23.92  26.60  28.83  30.73  32.37  33.80  35.04  36.12  37.06  37.89  38.59  39.20  39.70  40.12  40.46  40.71  40.89  41.00  41.03  41.01  40.92  40.77  40.56  40.30  39.98  39.62  39.21  38.75  38.25  37.71  37.13  36.51  35.86  35.18  34.47  33.73  32.97  32.18  31.38  30.56  29.72  28.87  28.01  27.14  26.26  25.39  24.51  23.63  22.75  21.88  21.01  20.15  19.31  18.47  17.65  16.84  16.06  15.28  14.53  13.80  13.10  12.41  11.75  11.11  10.50   9.91   9.35   8.81   8.31   7.82   7.37   6.94   6.53   6.15   5.80   5.47   5.16   4.87   4.60   4.36   4.13   3.92   3.72   3.54   3.36   3.20   3.03   2.87   2.71   2.53   2.34   2.11   1.83   1.47   0.94   0.00
  0.00  10.58  16.79  21.19  24.58  27.34  29.64  31.60  33.28  34.75  36.02  37.14  38.12  38.96  39.69  40.32  40.84  41.28  41.62  41.89  42.08  42.19  42.24  42.21  42.13  41.98  41.77  41.51  41.19  40.82  40.41  39.94  39.44  38.89  38.30  37.67  37.01  36.32  35.59  34.84  34.07  33.27  32.45  31.61  30.76  29.89  29.01  28.13  27.23  26.34  25.44  24.54  23.65  22.75  21.87  20.99  20.13  19.27  18.43  17.61  16.80  16.01  15.24  14.50  13.77  13.07  12.39  11.73  11.10  10.50   9.92   9.37   8.84   8.34   7.87   7.42   7.00   6.61   6.24   5.89   5.57   5.27   4.99   4.72   4.48   4.26   4.04   3.85   3.66   3.48   3.30   3.12   2.94   2.74   2.53   2.28   1.98   1.58   1.01   0.00
  0.00  10.87  17.24  21.76  25.25  28.09  30.45  32.46  34.20  35.70  37.02  38.17  39.17  40.04  40.80  41.44  41.99  42.44  42.80  43.07  43.27  43.39  43.45  43.43  43.34  43.20  42.99  42.73  42.41  42.04  41.61  41.15  40.63  40.07  39.48  38.84  38.17  37.46  36.73  35.96  35.17  34.36  33.53  32.67  31.81  30.92  30.03  29.12  28.21  27.30  26.38  25.47  24.55  23.64  22.74  21.85  20.96  20.09  19.23  18.39  17.56  16.75  15.97  15.20  14.45  13.73  13.04  12.36  11.71  11.09  10.50   9.93   9.39   8.87   8.38   7.92   7.49   7.07   6.69   6.33   5.99   5.67   5.38   5.10   4.84   4.60   4.38   4.16   3.96   3.76   3.57   3.38   3.18   2.96   2.73   2.46   2.13   1.70   1.08   0.00
  0.00  11.16  17.70  22.34  25.93  28.83  31.26  33.33  35.11  36.66  38.01  39.20  40.23  41.13  41.90  42.57  43.13  43.60  43.97  44.26  44.47  44.60  44.66  44.65  44.57  44.42  44.21  43.95  43.63  43.25  42.83  42.35  41.83  41.27  40.66  40.01  39.33  38.62  37.87  37.09  36.29  35.46  34.61  33.75  32.86  31.96  31.05  30.13  29.20  28.27  27.34  26.40  25.47  24.54  23.62  22.71  21.80  20.91  20.04  19.17  18.33  17.50  16.70  15.91  15.15  14.41  13.69  13.00  12.34  11.70  11.09  10.50   9.94   9.41   8.91   8.43   7.98   7.55   7.15   6.77   6.42   6.09   5.78   5.49   5.21   4.96   4.72   4.49   4.27   4.06   3.85   3.64   3.42   3.19   2.93   2.64   2.28   1.82   1.16   0.00
  0.00  11.45  18.16  22.92  26.60  29.58  32.08  34.20  36.03  37.62  39.01  40.23  41.29  42.21  43.01  43.70  44.28  44.76  45.15  45.45  45.67  45.81  45.87  45.87  45.79  45.65  45.44  45.17  44.85  44.47  44.04  43.56  43.04  42.46  41.85  41.19  40.50  39.77  39.01  38.23  37.41  36.57  35.70  34.82  33.92  33.01  32.08  31.14  30.20  29.25  28.30  27.34  26.39  25.45  24.51  23.58  22.65  21.75  20.85  19.97  19.11  18.26  17.44  16.63  15.85  15.10  14.36  13.65  12.97  12.32  11.69  11.08  10.51   9.96   9.44   8.94   8.48   8.03   7.62   7.23   6.86   6.51   6.19   5.88   5.59   5.32   5.07   4.82   4.59   4.36   4.13   3.91   3.67   3.42   3.14   2.83   2.44   1.95   1.24   0.00
  0.00  11.74  18.62  23.50  27.27  30.33  32.89  35.07  36.95  38.58  40.01  41.26  42.35  43.30  44.12  44.83  45.43  45.93  46.33  46.64  46.87  47.02  47.09  47.09  47.01  46.87  46.67  46.40  46.08  45.69  45.26  44.77  44.24  43.66  43.04  42.37  41.67  40.93  40.16  39.36  38.53  37.68  36.80  35.90  34.98  34.05  33.11  32.16  31.20  30.23  29.26  28.29  27.32  26.36  25.40  24.45  23.51  22.58  21.67  20.77  19.89  19.03  18.18  17.36  16.56  15.79  15.04  14.31  13.61  12.94  12.29  11.67  11.08  10.52   9.98   9.47   8.98   8.53   8.09   7.69   7.30   6.94   6.60   6.28   5.98   5.69   5.42   5.16   4.91   4.67   4.43   4.18   3.93   3.66   3.36   3.02   2.60   2.07   1.32   0.00
  0.00  12.02  19.07  24.08  27.94  31.08  33.70  35.93  37.86  39.54  41.00  42.28  43.40  44.38  45.23  45.96  46.57  47.09  47.50  47.83  48.07  48.22  48.30  48.30  48.23  48.09  47.89  47.62  47.30  46.91  46.47  45.98  45.44  44.86  44.22  43.55  42.84  42.09  41.31  40.50  39.65  38.78  37.89  36.98  36.05  35.10  34.14  33.17  32.20  31.21  30.23  29.24  28.25  27.27  26.30  25.33  24.37  23.42  22.49  21.57  20.68  19.79  18.93  18.09  17.28  16.48  15.72  14.97  14.26  13.56  12.90  12.27  11.66  11.08  10.52  10.00   9.50   9.02   8.58   8.15   7.75   7.38   7.02   6.69   6.37   6.07   5.78   5.51   5.24   4.98   4.72   4.46   4.19   3.90   3.58   3.21   2.77   2.20   1.40   0.00
  0.00  12.31  19.53  24.65  28.61  31.82  34.51  36.79  38.77  40.49  41.99  43.30  44.46  45.46  46.33  47.08  47.71  48.24  48.67  49.01  49.26  49.42  49.51  49.52  49.45  49.31  49.11  48.84  48.52  48.13  47.69  47.19  46.64  46.05  45.41  44.73  44.01  43.25  42.45  41.63  40.77  39.89  38.99  38.06  37.11  36.15  35.18  34.19  33.20  32.20  31.19  30.19  29.19  28.19  27.19  26.21  25.23  24.27  23.32  22.38  21.46  20.57  19.69  18.83  18.00  17.18  16.40  15.64  14.90  14.20  13.52  12.86  12.24  11.64  11.07  10.53  10.01   9.53   9.06   8.62   8.21   7.82   7.45   7.10   6.76   6.45   6.15   5.86   5.57   5.30   5.02   4.74   4.45   4.14   3.80   3.41   2.94   2.33   1.48   0.00
  0.00  12.59  19.98  25.22  29.27  32.56  35.31  37.65  39.67  41.43  42.97  44.32  45.50  46.53  47.42  48.19  48.85  49.39  49.84  50.19  50.44  50.62  50.71  50.72  50.66  50.53  50.32  50.06  49.73  49.34  48.89  48.39  47.84  47.24  46.59  45.90  45.17  44.40  43.59  42.76  41.89  40.99  40.08  39.13  38.17  37.20  36.21  35.21  34.20  33.18  32.16  31.14  30.12  29.10  28.09  27.09  26.09  25.11  24.14  23.19  22.25  21.34  20.44  19.57  18.71  17.89  17.08  16.31  15.55  14.83  14.13  13.46  12.82  12.21  11.62  11.07  10.54  10.03   9.55   9.10   8.67   8.26   7.88   7.51   7.16   6.83   6.51   6.21   5.91   5.62   5.32   5.03   4.72   4.39   4.02   3.61   3.11   2.46   1.56   0.00
  0.00  12.88  20.43  25.79  29.93  33.29  36.10  38.50  40.57  42.37  43.95  45.33  46.53  47.59  48.51  49.30  49.97  50.53  50.99  51.35  51.62  51.80  51.90  51.92  51.86  51.73  51.53  51.26  50.93  50.54  50.09  49.58  49.02  48.41  47.76  47.06  46.32  45.54  44.73  43.88  43.00  42.09  41.16  40.20  39.23  38.24  37.23  36.22  35.19  34.16  33.12  32.08  31.04  30.01  28.98  27.96  26.95  25.95  24.97  24.00  23.04  22.11  21.20  20.30  19.43  18.59  17.77  16.97  16.21  15.47  14.75  14.07  13.41  12.78  12.18  11.60  11.06  10.54  10.04   9.57   9.13   8.71   8.31   7.93   7.56   7.22   6.88   6.56   6.25   5.94   5.63   5.31   4.99   4.63   4.25   3.81   3.28   2.60   1.64   0.00
  0.00  13.16  20.87  26.35  30.58  34.02  36.89  39.34  41.45  43.30  44.91  46.32  47.56  48.64  49.58  50.39  51.08  51.66  52.13  52.50  52.78  52.97  53.08  53.10  53.05  52.92  52.72  52.45  52.12  51.72  51.27  50.76  50.20  49.58  48.92  48.21  47.46  46.67  45.85  44.99  44.10  43.18  42.23  41.26  40.28  39.27  38.25  37.22  36.18  35.13  34.08  33.02  31.97  30.92  29.87  28.83  27.80  26.79  25.79  24.80  23.83  22.88  21.95  21.04  20.15  19.29  18.45  17.64  16.86  16.10  15.37  14.67  13.99  13.35  12.73  12.14  11.58  11.05  10.54  10.05   9.59   9.16   8.74   8.34   7.97   7.60   7.26   6.92   6.59   6.26   5.94   5.60   5.26   4.88   4.47   4.01   3.45   2.73   1.73   0.00
  0.00  13.43  21.31  26.90  31.22  34.73  37.67  40.17  42.33  44.21  45.86  47.30  48.57  49.68  50.64  51.47  52.18  52.77  53.26  53.64  53.93  54.13  54.24  54.27  54.22  54.09  53.89  53.63  53.29  52.90  52.44  51.92  51.36  50.74  50.07  49.35  48.59  47.79  46.96  46.09  45.19  44.25  43.30  42.31  41.31  40.29  39.26  38.21  37.15  36.09  35.02  33.95  32.88  31.81  30.75  29.70  28.65  27.62  26.60  25.60  24.61  23.64  22.69  21.77  20.86  19.99  19.13  18.31  17.50  16.73  15.99  15.27  14.58  13.92  13.29  12.68  12.10  11.55  11.03  10.53  10.05   9.60   9.17   8.76   8.37   7.99   7.63   7.28   6.93   6.59   6.24   5.89   5.53   5.13   4.70   4.21   3.62   2.87   1.81   0.00
  0.00  13.70  21.74  27.44  31.85  35.44  38.43  40.98  43.19  45.11  46.79  48.27  49.56  50.70  51.68  52.53  53.26  53.86  54.36  54.76  55.06  55.27  55.38  55.42  55.37  55.25  55.05  54.78  54.45  54.05  53.59  53.07  52.50  51.87  51.20  50.47  49.71  48.90  48.05  47.17  46.26  45.32  44.35  43.35  42.34  41.30  40.25  39.19  38.12  37.04  35.96  34.87  33.79  32.70  31.62  30.55  29.49  28.44  27.41  26.39  25.38  24.40  23.43  22.49  21.57  20.68  19.81  18.96  18.15  17.36  16.60  15.86  15.16  14.48  13.84  13.22  12.62  12.06  11.52  11.00  10.51  10.05   9.60   9.18   8.77   8.38   8.00   7.63   7.27   6.91   6.55   6.18   5.80   5.38   4.93   4.41   3.79   3.00   1.90   0.00
  0.00  13.97  22.16  27.98  32.47  36.13  39.18  41.78  44.03  46.00  47.71  49.22  50.54  51.70  52.70  53.57  54.32  54.94  55.45  55.86  56.17  56.38  56.51  56.55  56.51  56.39  56.19  55.92  55.59  55.19  54.73  54.20  53.62  52.99  52.31  51.58  50.80  49.99  49.13  48.24  47.32  46.36  45.38  44.37  43.34  42.30  41.24  40.16  39.07  37.98  36.88  35.78  34.68  33.58  32.49  31.40  30.32  29.26  28.20  27.17  26.15  25.15  24.17  23.21  22.27  21.36  20.48  19.62  18.79  17.98  17.20  16.46  15.74  15.04  14.38  13.75  13.14  12.56  12.01  11.48  10.97  10.49  10.03   9.59   9.17   8.76   8.37   7.99   7.61   7.23   6.86   6.47   6.07   5.63   5.16   4.61   3.96   3.14   1.98   0.00
  0.00  14.23  22.57  28.50  33.08  36.80  39.91  42.57  44.86  46.86  48.61  50.15  51.50  52.68  53.71  54.59  55.35  55.99  56.52  56.94  57.26  57.48  57.61  57.66  57.62  57.50  57.31  57.04  56.70  56.30  55.84  55.31  54.73  54.09  53.40  52.66  51.88  51.06  50.19  49.29  48.35  47.39  46.39  45.38  44.34  43.28  42.20  41.11  40.01  38.90  37.79  36.67  35.56  34.44  33.33  32.23  31.14  30.06  28.99  27.94  26.90  25.89  24.89  23.92  22.97  22.04  21.14  20.26  19.42  18.60  17.80  17.04  16.31  15.60  14.92  14.27  13.65  13.06  12.49  11.95  11.43  10.93  10.46  10.00   9.57   9.15   8.74   8.34   7.95   7.55   7.16   6.76   6.33   5.88   5.38   4.81   4.13   3.27   2.06   0.00
  0.00  14.48  22.98  29.01  33.67  37.46  40.63  43.33  45.67  47.71  49.49  51.06  52.43  53.64  54.68  55.59  56.37  57.02  57.56  57.99  58.32  58.55  58.69  58.74  58.70  58.59  58.40  58.13  57.79  57.39  56.92  56.39  55.81  55.16  54.47  53.72  52.93  52.10  51.23  50.32  49.37  48.39  47.39  46.36  45.31  44.23  43.15  42.04  40.93  39.81  38.68  37.55  36.42  35.29  34.17  33.05  31.94  30.85  29.76  28.70  27.64  26.61  25.60  24.61  23.65  22.71  21.79  20.90  20.04  19.20  18.40  17.62  16.87  16.15  15.46  14.79  14.16  13.55  12.96  12.41  11.88  11.37  10.88  10.41   9.96   9.52   9.10   8.69   8.28   7.87   7.46   7.04   6.60   6.12   5.60   5.01   4.30   3.40   2.15   0.00
  0.00  14.73  23.37  29.50  34.25  38.10  41.33  44.08  46.46  48.53  50.34  51.94  53.34  54.57  55.64  56.56  57.35  58.02  58.57  59.02  59.35  59.59  59.74  59.79  59.76  59.65  59.46  59.19  58.86  58.45  57.98  57.45  56.86  56.21  55.51  54.76  53.96  53.12  52.24  51.32  50.36  49.37  48.36  47.32  46.25  45.17  44.07  42.95  41.83  40.69  39.55  38.41  37.26  36.12  34.98  33.85  32.73  31.62  30.52  29.44  28.37  27.33  26.30  25.30  24.32  23.36  22.43  21.52  20.65  19.80  18.98  18.18  17.42  16.69  15.98  15.30  14.65  14.03  13.43  12.86  12.32  11.79  11.29  10.81  10.34   9.90   9.46   9.03   8.61   8.18   7.76   7.32   6.86   6.37   5.82   5.20   4.47   3.53   2.23   0.00
  0.00  14.97  23.75  29.99  34.81  38.73  42.00  44.80  47.22  49.33  51.17  52.80  54.22  55.47  56.56  57.50  58.31  58.99  59.56  60.01  60.36  60.60  60.75  60.82  60.79  60.68  60.49  60.23  59.89  59.48  59.01  58.47  57.88  57.23  56.52  55.76  54.96  54.11  53.22  52.29  51.33  50.33  49.30  48.25  47.18  46.08  44.97  43.84  42.70  41.55  40.40  39.24  38.08  36.93  35.78  34.63  33.50  32.37  31.26  30.16  29.08  28.02  26.98  25.96  24.97  24.00  23.05  22.14  21.24  20.38  19.55  18.74  17.96  17.21  16.50  15.80  15.14  14.50  13.89  13.31  12.75  12.21  11.70  11.20  10.73  10.26   9.81   9.37   8.93   8.49   8.05   7.59   7.12   6.60   6.04   5.40   4.63   3.66   2.31   0.00
  0.00  15.20  24.12  30.45  35.35  39.33  42.66  45.50  47.95  50.10  51.97  53.62  55.07  56.34  57.45  58.41  59.24  59.93  60.51  60.97  61.33  61.58  61.74  61.80  61.78  61.68  61.49  61.22  60.89  60.48  60.00  59.47  58.87  58.21  57.50  56.74  55.92  55.07  54.17  53.23  52.26  51.26  50.22  49.16  48.07  46.97  45.84  44.70  43.55  42.39  41.22  40.05  38.88  37.72  36.55  35.39  34.24  33.10  31.98  30.87  29.78  28.70  27.65  26.62  25.61  24.62  23.67  22.73  21.83  20.95  20.10  19.28  18.49  17.73  17.00  16.29  15.62  14.97  14.35  13.75  13.18  12.63  12.10  11.59  11.10  10.62  10.16   9.70   9.25   8.79   8.34   7.86   7.37   6.84   6.25   5.59   4.79   3.79   2.39   0.00
  0.00  15.42  24.47  30.90  35.87  39.91  43.28  46.17  48.66  50.84  52.74  54.42  55.89  57.19  58.31  59.29  60.13  60.84  61.42  61.90  62.26  62.52  62.69  62.76  62.74  62.63  62.45  62.19  61.85  61.44  60.96  60.42  59.82  59.16  58.44  57.67  56.86  55.99  55.09  54.14  53.16  52.15  51.10  50.03  48.94  47.82  46.69  45.54  44.37  43.20  42.02  40.84  39.66  38.48  37.30  36.13  34.97  33.82  32.68  31.55  30.45  29.36  28.29  27.25  26.23  25.23  24.26  23.31  22.40  21.51  20.65  19.81  19.01  18.24  17.49  16.77  16.08  15.42  14.79  14.18  13.59  13.03  12.49  11.97  11.46  10.97  10.49  10.02   9.56   9.09   8.62   8.13   7.62   7.07   6.46   5.77   4.95   3.91   2.46   0.00
  0.00  15.64  24.81  31.33  36.37  40.46  43.89  46.81  49.34  51.55  53.48  55.18  56.68  57.99  59.14  60.13  60.98  61.70  62.30  62.78  63.16  63.42  63.59  63.67  63.66  63.55  63.37  63.11  62.77  62.36  61.88  61.34  60.73  60.07  59.35  58.58  57.75  56.88  55.97  55.02  54.03  53.01  51.96  50.88  49.77  48.64  47.50  46.34  45.16  43.98  42.79  41.60  40.41  39.21  38.02  36.84  35.67  34.50  33.35  32.22  31.10  30.00  28.92  27.86  26.83  25.82  24.83  23.88  22.95  22.05  21.17  20.33  19.51  18.72  17.97  17.24  16.54  15.86  15.22  14.59  14.00  13.42  12.87  12.33  11.82  11.31  10.82  10.34   9.86   9.38   8.89   8.39   7.86   7.29   6.66   5.95   5.10   4.03   2.54   0.00
  0.00  15.84  25.13  31.73  36.84  40.99  44.46  47.42  49.99  52.22  54.19  55.91  57.43  58.76  59.92  60.93  61.79  62.53  63.14  63.63  64.01  64.29  64.46  64.54  64.53  64.43  64.25  63.99  63.65  63.24  62.76  62.22  61.61  60.94  60.22  59.44  58.61  57.74  56.82  55.86  54.86  53.83  52.77  51.68  50.57  49.43  48.28  47.11  45.92  44.73  43.53  42.33  41.12  39.92  38.72  37.52  36.34  35.16  34.00  32.85  31.72  30.61  29.52  28.45  27.41  26.39  25.39  24.42  23.48  22.57  21.68  20.82  20.00  19.20  18.43  17.69  16.97  16.29  15.63  15.00  14.39  13.80  13.24  12.69  12.16  11.64  11.14  10.64  10.15   9.66   9.15   8.64   8.09   7.51   6.86   6.13   5.25   4.15   2.61   0.00
  0.00  16.03  25.44  32.12  37.29  41.49  45.00  48.00  50.60  52.87  54.85  56.60  58.14  59.49  60.66  61.69  62.57  63.31  63.93  64.43  64.82  65.10  65.28  65.37  65.36  65.27  65.09  64.83  64.49  64.08  63.60  63.05  62.44  61.77  61.04  60.26  59.43  58.55  57.62  56.66  55.65  54.62  53.55  52.45  51.33  50.18  49.02  47.84  46.65  45.45  44.24  43.02  41.81  40.59  39.38  38.18  36.98  35.80  34.62  33.47  32.32  31.20  30.10  29.02  27.96  26.93  25.92  24.94  23.99  23.07  22.17  21.30  20.46  19.65  18.87  18.12  17.40  16.70  16.03  15.39  14.77  14.17  13.59  13.03  12.49  11.97  11.45  10.94  10.43   9.93   9.41   8.88   8.32   7.71   7.05   6.30   5.40   4.26   2.68   0.00
  0.00  16.21  25.73  32.48  37.71  41.96  45.51  48.55  51.18  53.47  55.48  57.25  58.81  60.17  61.37  62.40  63.29  64.05  64.68  65.19  65.58  65.87  66.06  66.15  66.14  66.05  65.87  65.62  65.28  64.87  64.39  63.84  63.22  62.55  61.82  61.03  60.20  59.31  58.38  57.41  56.40  55.36  54.28  53.18  52.05  50.90  49.73  48.54  47.34  46.13  44.91  43.69  42.46  41.24  40.02  38.80  37.60  36.40  35.22  34.05  32.90  31.77  30.65  29.56  28.49  27.45  26.43  25.44  24.48  23.54  22.64  21.76  20.91  20.09  19.30  18.54  17.80  17.10  16.42  15.76  15.13  14.52  13.93  13.36  12.81  12.27  11.75  11.23  10.71  10.19   9.66   9.11   8.53   7.92   7.23   6.46   5.54   4.37   2.75   0.00
  0.00  16.38  26.00  32.82  38.11  42.40  45.99  49.06  51.72  54.03  56.07  57.86  59.43  60.81  62.02  63.07  63.97  64.74  65.38  65.89  66.30  66.59  66.78  66.88  66.88  66.79  66.61  66.35  66.02  65.61  65.13  64.58  63.96  63.28  62.55  61.76  60.92  60.03  59.10  58.12  57.11  56.06  54.98  53.86  52.73  51.57  50.39  49.20  47.99  46.77  45.54  44.31  43.08  41.84  40.62  39.39  38.18  36.97  35.78  34.60  33.44  32.30  31.18  30.08  29.00  27.95  26.92  25.92  24.95  24.00  23.08  22.20  21.34  20.51  19.71  18.94  18.19  17.47  16.78  16.12  15.48  14.86  14.26  13.68  13.12  12.57  12.03  11.50  10.97  10.44   9.89   9.33   8.74   8.11   7.41   6.61   5.67   4.47   2.81   0.00
  0.00  16.54  26.25  33.14  38.47  42.81  46.43  49.53  52.21  54.55  56.61  58.42  60.01  61.40  62.63  63.69  64.60  65.38  66.02  66.55  66.96  67.26  67.46  67.55  67.56  67.47  67.30  67.04  66.71  66.29  65.81  65.26  64.64  63.97  63.23  62.44  61.59  60.70  59.76  58.78  57.76  56.71  55.62  54.51  53.36  52.20  51.01  49.81  48.60  47.37  46.14  44.90  43.66  42.41  41.18  39.95  38.72  37.51  36.31  35.12  33.95  32.80  31.67  30.56  29.48  28.42  27.38  26.37  25.39  24.43  23.51  22.61  21.74  20.90  20.09  19.31  18.56  17.83  17.13  16.46  15.81  15.18  14.57  13.98  13.41  12.85  12.30  11.76  11.22  10.67  10.12   9.55   8.94   8.29   7.58   6.76   5.80   4.57   2.88   0.00
  0.00  16.68  26.47  33.42  38.81  43.18  46.84  49.96  52.67  55.03  57.11  58.93  60.54  61.95  63.18  64.25  65.18  65.96  66.62  67.15  67.56  67.87  68.07  68.17  68.18  68.10  67.93  67.67  67.34  66.93  66.44  65.89  65.27  64.59  63.86  63.06  62.21  61.32  60.38  59.39  58.37  57.31  56.22  55.10  53.95  52.78  51.59  50.38  49.16  47.93  46.69  45.44  44.19  42.95  41.70  40.46  39.23  38.01  36.80  35.61  34.43  33.27  32.14  31.02  29.93  28.86  27.81  26.79  25.80  24.84  23.91  23.00  22.13  21.28  20.46  19.67  18.91  18.17  17.46  16.78  16.12  15.48  14.87  14.27  13.69  13.12  12.56  12.01  11.46  10.90  10.33   9.75   9.13   8.47   7.74   6.91   5.92   4.67   2.94   0.00
  0.00  16.81  26.68  33.68  39.11  43.51  47.20  50.35  53.08  55.46  57.55  59.39  61.01  62.44  63.68  64.77  65.70  66.49  67.15  67.69  68.11  68.43  68.63  68.74  68.75  68.67  68.50  68.24  67.91  67.50  67.02  66.47  65.85  65.17  64.43  63.63  62.78  61.88  60.94  59.95  58.92  57.86  56.77  55.64  54.49  53.31  52.12  50.90  49.68  48.44  47.19  45.94  44.69  43.44  42.19  40.94  39.70  38.48  37.26  36.06  34.88  33.71  32.57  31.44  30.34  29.27  28.21  27.19  26.19  25.22  24.28  23.37  22.48  21.63  20.80  20.00  19.23  18.49  17.77  17.08  16.42  15.77  15.15  14.54  13.95  13.37  12.80  12.24  11.68  11.11  10.54   9.94   9.31   8.63   7.89   7.04   6.03   4.76   2.99   0.00
  0.00  16.93  26.86  33.91  39.38  43.81  47.53  50.70  53.45  55.85  57.95  59.81  61.44  62.87  64.13  65.22  66.16  66.96  67.63  68.18  68.60  68.92  69.13  69.24  69.25  69.17  69.01  68.75  68.42  68.01  67.53  66.98  66.36  65.68  64.94  64.14  63.29  62.39  61.44  60.45  59.42  58.36  57.26  56.13  54.98  53.80  52.60  51.38  50.15  48.91  47.66  46.40  45.14  43.88  42.63  41.38  40.13  38.90  37.68  36.48  35.29  34.11  32.96  31.83  30.73  29.64  28.59  27.55  26.55  25.57  24.63  23.71  22.82  21.95  21.12  20.32  19.54  18.79  18.06  17.37  16.69  16.04  15.40  14.79  14.19  13.60  13.03  12.46  11.89  11.31  10.72  10.12   9.48   8.79   8.03   7.16   6.14   4.84   3.04   0.00
  0.00  17.03  27.02  34.11  39.61  44.07  47.81  51.00  53.76  56.18  58.30  60.16  61.81  63.25  64.52  65.62  66.56  67.37  68.05  68.60  69.03  69.35  69.56  69.68  69.69  69.61  69.45  69.20  68.87  68.46  67.98  67.43  66.81  66.13  65.39  64.59  63.74  62.84  61.89  60.90  59.87  58.80  57.70  56.57  55.41  54.23  53.02  51.80  50.57  49.32  48.07  46.81  45.55  44.28  43.02  41.77  40.52  39.29  38.06  36.85  35.66  34.48  33.32  32.19  31.08  29.99  28.92  27.89  26.88  25.90  24.94  24.02  23.12  22.25  21.41  20.60  19.82  19.06  18.33  17.63  16.94  16.28  15.64  15.02  14.42  13.82  13.24  12.66  12.08  11.50  10.90  10.28   9.63   8.93   8.16   7.28   6.24   4.92   3.09   0.00
  0.00  17.11  27.15  34.28  39.80  44.29  48.04  51.25  54.03  56.46  58.59  60.46  62.12  63.57  64.84  65.95  66.90  67.72  68.40  68.95  69.39  69.71  69.93  70.05  70.06  69.99  69.83  69.58  69.25  68.84  68.36  67.81  67.20  66.51  65.77  64.97  64.12  63.22  62.27  61.28  60.25  59.18  58.08  56.94  55.78  54.60  53.40  52.17  50.94  49.69  48.43  47.17  45.90  44.64  43.38  42.12  40.87  39.63  38.40  37.18  35.99  34.81  33.65  32.51  31.39  30.30  29.23  28.19  27.17  26.19  25.23  24.30  23.40  22.52  21.68  20.86  20.07  19.31  18.58  17.87  17.18  16.51  15.86  15.24  14.62  14.02  13.43  12.84  12.26  11.67  11.06  10.44   9.77   9.06   8.28   7.39   6.33   4.99   3.14   0.00
  0.00  17.18  27.26  34.41  39.96  44.46  48.23  51.45  54.24  56.68  58.82  60.70  62.36  63.82  65.10  66.22  67.18  67.99  68.68  69.24  69.68  70.01  70.23  70.35  70.37  70.30  70.13  69.89  69.56  69.16  68.68  68.13  67.51  66.83  66.09  65.29  64.44  63.54  62.59  61.60  60.57  59.50  58.39  57.26  56.10  54.92  53.71  52.49  51.25  50.00  48.74  47.48  46.21  44.94  43.68  42.42  41.17  39.92  38.69  37.48  36.27  35.09  33.93  32.79  31.67  30.57  29.50  28.46  27.44  26.45  25.48  24.55  23.64  22.77  21.92  21.10  20.30  19.54  18.80  18.08  17.39  16.72  16.06  15.43  14.81  14.20  13.61  13.01  12.42  11.82  11.21  10.57   9.90   9.18   8.39   7.48   6.41   5.05   3.18   0.00
  0.00  17.22  27.33  34.51  40.07  44.59  48.37  51.60  54.40  56.85  58.99  60.88  62.55  64.01  65.30  66.41  67.38  68.20  68.89  69.45  69.90  70.23  70.45  70.57  70.60  70.53  70.37  70.13  69.80  69.40  68.92  68.37  67.76  67.08  66.34  65.54  64.69  63.79  62.84  61.85  60.82  59.75  58.65  57.52  56.36  55.17  53.97  52.74  51.50  50.25  49.00  47.73  46.46  45.20  43.93  42.67  41.42  40.17  38.94  37.72  36.52  35.34  34.17  33.03  31.90  30.81  29.73  28.69  27.67  26.67  25.71  24.77  23.86  22.98  22.13  21.30  20.51  19.74  18.99  18.27  17.57  16.90  16.24  15.60  14.98  14.37  13.76  13.16  12.56  11.96  11.34  10.70  10.02   9.29   8.49   7.57   6.48   5.11   3.21   0.00
  0.00  17.25  27.38  34.57  40.14  44.67  48.46  51.70  54.50  56.95  59.10  61.00  62.67  64.13  65.42  66.54  67.51  68.34  69.03  69.59  70.04  70.37  70.60  70.72  70.75  70.68  70.53  70.29  69.96  69.56  69.09  68.54  67.93  67.25  66.51  65.72  64.87  63.97  63.02  62.03  61.00  59.94  58.84  57.70  56.55  55.36  54.16  52.94  51.70  50.45  49.19  47.93  46.66  45.40  44.13  42.87  41.62  40.37  39.14  37.92  36.72  35.53  34.37  33.22  32.10  31.00  29.93  28.88  27.86  26.86  25.90  24.96  24.05  23.16  22.31  21.48  20.68  19.91  19.16  18.44  17.73  17.06  16.40  15.75  15.12  14.51  13.90  13.30  12.69  12.08  11.45  10.81  10.12   9.39   8.57   7.65   6.55   5.16   3.24   0.00
  0.00  17.27  27.40  34.60  40.17  44.70  48.49  51.73  54.54  56.99  59.15  61.04  62.71  64.18  65.47  66.60  67.57  68.39  69.09  69.65  70.10  70.44  70.67  70.79  70.82  70.76  70.61  70.37  70.05  69.65  69.17  68.63  68.02  67.35  66.61  65.82  64.97  64.08  63.13  62.15  61.12  60.05  58.96  57.83  56.67  55.49  54.29  53.07  51.83  50.59  49.33  48.07  46.80  45.54  44.27  43.02  41.76  40.52  39.29  38.07  36.87  35.69  34.52  33.38  32.26  31.16  30.08  29.03  28.01  27.02  26.05  25.11  24.20  23.31  22.46  21.63  20.83  20.05  19.30  18.57  17.87  17.19  16.53  15.88  15.25  14.63  14.02  13.41  12.80  12.18  11.55  10.90  10.21   9.47   8.65   7.71   6.60   5.21   3.27   0.00
  0.00  17.26  27.39  34.58  40.15  44.68  48.47  51.71  54.52  56.97  59.12  61.02  62.69  64.16  65.45  66.57  67.54  68.37  69.07  69.64  70.09  70.42  70.65  70.78  70.81  70.75  70.60  70.36  70.05  69.65  69.18  68.64  68.03  67.36  66.63  65.84  65.00  64.10  63.17  62.18  61.16  60.10  59.00  57.88  56.72  55.55  54.35  53.13  51.90  50.66  49.41  48.15  46.89  45.62  44.36  43.11  41.86  40.62  39.39  38.18  36.98  35.79  34.63  33.49  32.37  31.27  30.20  29.15  28.13  27.13  26.17  25.23  24.31  23.43  22.57  21.74  20.94  20.16  19.41  18.69  17.98  17.30  16.63  15.98  15.35  14.73  14.11  13.50  12.89  12.27  11.63  10.98  10.28   9.53   8.71   7.77   6.65   5.24   3.29   0.00
  0.00  17.23  27.34  34.52  40.08  44.60  48.39  51.62  54.43  56.87  59.02  60.92  62.59  64.06  65.35  66.47  67.44  68.27  68.96  69.53  69.98  70.32  70.55  70.68  70.72  70.66  70.51  70.27  69.96  69.57  69.10  68.56  67.96  67.29  66.56  65.78  64.94  64.05  63.12  62.14  61.12  60.06  58.97  57.85  56.70  55.53  54.34  53.13  51.90  50.66  49.42  48.16  46.90  45.65  44.39  43.14  41.89  40.66  39.43  38.22  37.03  35.85  34.69  33.55  32.43  31.34  30.27  29.22  28.20  27.21  26.24  25.31  24.39  23.51  22.66  21.83  21.02  20.25  19.50  18.77  18.06  17.38  16.71  16.06  15.43  14.80  14.18  13.57  12.96  12.33  11.70  11.03  10.34   9.58   8.75   7.81   6.68   5.27   3.31   0.00
  0.00  17.18  27.26  34.42  39.97  44.47  48.25  51.47  54.27  56.71  58.85  60.74  62.41  63.87  65.16  66.28  67.25  68.08  68.77  69.34  69.79  70.13  70.36  70.50  70.53  70.47  70.33  70.09  69.78  69.39  68.93  68.40  67.80  67.13  66.41  65.63  64.80  63.92  62.99  62.01  61.00  59.95  58.86  57.75  56.61  55.44  54.26  53.05  51.83  50.60  49.36  48.11  46.86  45.61  44.36  43.11  41.87  40.64  39.42  38.22  37.03  35.85  34.70  33.56  32.45  31.36  30.29  29.25  28.23  27.25  26.28  25.35  24.44  23.56  22.70  21.88  21.07  20.30  19.55  18.82  18.12  17.43  16.76  16.11  15.48  14.85  14.23  13.62  13.00  12.38  11.74  11.08  10.38   9.62   8.79   7.84   6.71   5.29   3.32   0.00
  0.00  17.10  27.14  34.27  39.80  44.28  48.04  51.25  54.04  56.47  58.60  60.49  62.15  63.61  64.89  66.00  66.97  67.79  68.49  69.05  69.51  69.84  70.08  70.21  70.25  70.19  70.05  69.82  69.51  69.13  68.67  68.14  67.54  66.89  66.17  65.39  64.57  63.69  62.77  61.80  60.79  59.75  58.67  57.57  56.43  55.27  54.10  52.90  51.69  50.46  49.23  47.99  46.74  45.50  44.26  43.02  41.79  40.57  39.35  38.15  36.97  35.80  34.65  33.52  32.42  31.33  30.27  29.23  28.22  27.24  26.28  25.35  24.44  23.56  22.71  21.89  21.09  20.32  19.57  18.84  18.14  17.46  16.79  16.14  15.50  14.88  14.26  13.65  13.03  12.41  11.77  11.10  10.40   9.64   8.81   7.85   6.72   5.30   3.33   0.00
  0.00  17.01  26.99  34.08  39.57  44.03  47.77  50.96  53.73  56.15  58.27  60.14  61.79  63.25  64.52  65.63  66.59  67.42  68.11  68.67  69.12  69.46  69.69  69.83  69.86  69.81  69.67  69.44  69.14  68.76  68.30  67.78  67.19  66.54  65.83  65.06  64.24  63.37  62.46  61.50  60.50  59.47  58.40  57.30  56.17  55.02  53.85  52.67  51.46  50.25  49.02  47.79  46.56  45.32  44.09  42.86  41.64  40.42  39.22  38.03  36.86  35.70  34.55  33.43  32.33  31.25  30.20  29.17  28.16  27.18  26.23  25.31  24.41  23.53  22.69  21.87  21.07  20.30  19.56  18.83  18.13  17.45  16.79  16.14  15.50  14.88  14.26  13.65  13.03  12.41  11.77  11.10  10.40   9.64   8.81   7.86   6.73   5.30   3.33   0.00
  0.00  16.88  26.79  33.83  39.28  43.71  47.42  50.60  53.34  55.74  57.85  59.71  61.35  62.79  64.06  65.17  66.12  66.94  67.62  68.19  68.63  68.97  69.20  69.34  69.38  69.32  69.19  68.96  68.66  68.29  67.84  67.32  66.74  66.09  65.39  64.63  63.82  62.96  62.05  61.10  60.11  59.09  58.03  56.94  55.83  54.69  53.53  52.35  51.16  49.96  48.74  47.52  46.30  45.08  43.85  42.63  41.42  40.22  39.03  37.84  36.68  35.53  34.40  33.28  32.19  31.12  30.08  29.05  28.06  27.09  26.14  25.22  24.33  23.46  22.62  21.80  21.01  20.25  19.51  18.79  18.09  17.41  16.75  16.11  15.48  14.85  14.24  13.63  13.01  12.39  11.75  11.09  10.39   9.63   8.80   7.84   6.72   5.29   3.33   0.00
  0.00  16.73  26.56  33.53  38.94  43.33  47.00  50.15  52.87  55.25  57.34  59.19  60.81  62.24  63.50  64.59  65.54  66.35  67.03  67.59  68.03  68.37  68.60  68.74  68.78  68.73  68.59  68.37  68.08  67.71  67.26  66.75  66.18  65.54  64.84  64.09  63.29  62.44  61.54  60.60  59.63  58.61  57.57  56.49  55.39  54.26  53.11  51.95  50.77  49.58  48.38  47.17  45.96  44.75  43.54  42.33  41.13  39.94  38.76  37.59  36.44  35.30  34.18  33.08  32.00  30.94  29.90  28.89  27.90  26.94  26.00  25.09  24.20  23.34  22.51  21.70  20.92  20.16  19.42  18.71  18.02  17.34  16.69  16.05  15.42  14.80  14.19  13.58  12.97  12.35  11.71  11.05  10.35   9.60   8.77   7.82   6.69   5.28   3.32   0.00
  0.00  16.56  26.27  33.18  38.52  42.87  46.50  49.62  52.31  54.66  56.73  58.56  60.17  61.58  62.83  63.91  64.85  65.65  66.33  66.88  67.32  67.65  67.89  68.02  68.06  68.01  67.88  67.67  67.37  67.01  66.57  66.07  65.50  64.87  64.19  63.44  62.65  61.81  60.93  60.00  59.04  58.04  57.00  55.94  54.85  53.74  52.60  51.45  50.29  49.11  47.93  46.73  45.54  44.34  43.15  41.96  40.77  39.59  38.43  37.27  36.13  35.00  33.90  32.81  31.74  30.69  29.67  28.67  27.69  26.74  25.81  24.91  24.03  23.18  22.35  21.55  20.78  20.03  19.30  18.59  17.90  17.24  16.59  15.95  15.33  14.72  14.11  13.50  12.90  12.28  11.65  10.99  10.30   9.55   8.72   7.78   6.66   5.25   3.30   0.00
  0.00  16.35  25.94  32.76  38.04  42.33  45.92  48.99  51.65  53.98  56.02  57.82  59.41  60.81  62.04  63.11  64.04  64.83  65.50  66.05  66.48  66.81  67.04  67.18  67.22  67.17  67.04  66.83  66.55  66.19  65.76  65.26  64.70  64.08  63.41  62.68  61.90  61.07  60.20  59.28  58.33  57.35  56.33  55.28  54.21  53.11  51.99  50.86  49.71  48.55  47.38  46.21  45.03  43.85  42.67  41.49  40.33  39.16  38.01  36.87  35.75  34.64  33.55  32.47  31.42  30.38  29.37  28.38  27.42  26.48  25.56  24.67  23.81  22.97  22.15  21.36  20.60  19.85  19.13  18.43  17.75  17.09  16.45  15.82  15.21  14.60  14.00  13.40  12.80  12.19  11.56  10.91  10.22   9.48   8.66   7.72   6.61   5.21   3.27   0.00
  0.00  16.11  25.56  32.28  37.48  41.70  45.24  48.27  50.89  53.18  55.20  56.97  58.54  59.92  61.13  62.19  63.10  63.88  64.54  65.08  65.51  65.84  66.07  66.20  66.24  66.20  66.07  65.86  65.58  65.23  64.81  64.32  63.77  63.16  62.50  61.78  61.02  60.20  59.34  58.45  57.51  56.54  55.54  54.51  53.45  52.37  51.28  50.16  49.03  47.89  46.74  45.58  44.42  43.26  42.10  40.95  39.80  38.65  37.52  36.40  35.29  34.20  33.12  32.06  31.03  30.01  29.01  28.04  27.09  26.16  25.26  24.38  23.53  22.70  21.90  21.12  20.37  19.63  18.92  18.23  17.56  16.91  16.28  15.66  15.05  14.45  13.86  13.26  12.67  12.06  11.45  10.80  10.12   9.38   8.57   7.64   6.54   5.16   3.24   0.00
  0.00  15.83  25.13  31.73  36.84  40.99  44.47  47.45  50.02  52.28  54.26  56.00  57.54  58.90  60.09  61.12  62.02  62.79  63.44  63.97  64.40  64.72  64.94  65.07  65.12  65.07  64.95  64.75  64.48  64.13  63.72  63.24  62.70  62.11  61.45  60.75  60.00  59.20  58.36  57.48  56.56  55.61  54.63  53.61  52.58  51.52  50.44  49.35  48.24  47.12  45.99  44.85  43.72  42.58  41.44  40.30  39.17  38.05  36.94  35.84  34.75  33.68  32.62  31.58  30.56  29.56  28.58  27.63  26.70  25.79  24.90  24.04  23.20  22.39  21.60  20.83  20.09  19.37  18.67  17.99  17.33  16.69  16.06  15.45  14.85  14.26  13.68  13.09  12.51  11.91  11.30  10.67   9.99   9.27   8.46   7.55   6.46   5.09   3.20   0.00
  0.00  15.52  24.63  31.10  36.11  40.18  43.59  46.51  49.03  51.24  53.18  54.89  56.40  57.73  58.90  59.92  60.80  61.55  62.19  62.71  63.13  63.44  63.66  63.79  63.83  63.79  63.67  63.48  63.21  62.87  62.47  62.00  61.48  60.89  60.26  59.57  58.83  58.05  57.23  56.37  55.47  54.54  53.58  52.59  51.57  50.54  49.48  48.41  47.32  46.23  45.12  44.01  42.90  41.78  40.67  39.56  38.45  37.35  36.26  35.18  34.12  33.07  32.03  31.02  30.02  29.04  28.08  27.14  26.23  25.34  24.47  23.63  22.80  22.01  21.23  20.48  19.75  19.05  18.36  17.70  17.05  16.42  15.81  15.21  14.62  14.04  13.46  12.89  12.31  11.73  11.13  10.50   9.84   9.12   8.33   7.43   6.36   5.02   3.15   0.00
  0.00  15.16  24.06  30.38  35.28  39.26  42.59  45.44  47.91  50.06  51.96  53.63  55.11  56.41  57.55  58.54  59.40  60.14  60.76  61.27  61.68  61.99  62.21  62.34  62.38  62.34  62.22  62.03  61.77  61.44  61.05  60.60  60.08  59.51  58.89  58.22  57.50  56.74  55.94  55.10  54.22  53.32  52.38  51.41  50.42  49.41  48.38  47.34  46.28  45.21  44.13  43.05  41.96  40.87  39.78  38.70  37.62  36.54  35.48  34.43  33.39  32.36  31.35  30.36  29.39  28.43  27.50  26.58  25.69  24.82  23.97  23.14  22.34  21.56  20.81  20.07  19.36  18.67  18.00  17.35  16.72  16.10  15.50  14.92  14.34  13.77  13.21  12.65  12.08  11.51  10.92  10.31   9.66   8.96   8.18   7.30   6.25   4.92   3.09   0.00
  0.00  14.76  23.42  29.58  34.34  38.21  41.46  44.23  46.63  48.73  50.58  52.21  53.64  54.91  56.02  56.99  57.83  58.55  59.15  59.65  60.05  60.35  60.56  60.69  60.73  60.69  60.58  60.39  60.14  59.82  59.44  59.00  58.50  57.95  57.35  56.69  56.00  55.26  54.48  53.66  52.81  51.93  51.01  50.07  49.11  48.13  47.13  46.11  45.08  44.04  43.00  41.94  40.88  39.82  38.77  37.71  36.66  35.62  34.59  33.56  32.55  31.55  30.57  29.61  28.66  27.73  26.82  25.93  25.06  24.21  23.39  22.58  21.80  21.05  20.31  19.60  18.90  18.23  17.58  16.94  16.33  15.73  15.14  14.57  14.01  13.46  12.91  12.36  11.81  11.25  10.67  10.07   9.44   8.75   8.00   7.13   6.11   4.81   3.02   0.00
  0.00  14.30  22.70  28.66  33.28  37.03  40.18  42.87  45.19  47.23  49.02  50.60  51.99  53.21  54.29  55.23  56.04  56.74  57.33  57.81  58.20  58.49  58.70  58.82  58.86  58.82  58.72  58.54  58.29  57.99  57.62  57.19  56.71  56.17  55.59  54.96  54.29  53.57  52.81  52.02  51.20  50.35  49.46  48.55  47.62  46.67  45.70  44.72  43.72  42.72  41.70  40.68  39.66  38.63  37.61  36.59  35.57  34.56  33.56  32.57  31.59  30.63  29.67  28.74  27.82  26.92  26.04  25.18  24.34  23.52  22.72  21.94  21.18  20.45  19.73  19.04  18.37  17.72  17.09  16.47  15.88  15.29  14.73  14.17  13.63  13.09  12.56  12.02  11.49  10.94  10.39   9.80   9.19   8.52   7.78   6.94   5.94   4.69   2.94   0.00
  0.00  13.79  21.88  27.63  32.08  35.70  38.73  41.32  43.56  45.52  47.25  48.77  50.11  51.29  52.33  53.24  54.02  54.69  55.26  55.73  56.10  56.38  56.58  56.70  56.74  56.71  56.60  56.43  56.20  55.90  55.55  55.14  54.67  54.16  53.60  52.99  52.34  51.65  50.92  50.16  49.37  48.55  47.70  46.82  45.93  45.01  44.08  43.13  42.17  41.20  40.23  39.24  38.26  37.27  36.29  35.30  34.32  33.35  32.39  31.43  30.49  29.56  28.65  27.75  26.86  25.99  25.14  24.31  23.50  22.71  21.94  21.19  20.47  19.76  19.07  18.40  17.76  17.13  16.52  15.93  15.35  14.79  14.24  13.71  13.18  12.66  12.15  11.63  11.12  10.59  10.05   9.49   8.89   8.25   7.53   6.72   5.75   4.54   2.85   0.00
  0.00  13.20  20.95  26.45  30.71  34.18  37.08  39.56  41.71  43.58  45.24  46.69  47.98  49.11  50.10  50.97  51.72  52.36  52.91  53.35  53.71  53.98  54.17  54.29  54.33  54.29  54.20  54.03  53.81  53.53  53.19  52.80  52.35  51.86  51.32  50.74  50.12  49.47  48.77  48.04  47.28  46.50  45.69  44.85  43.99  43.12  42.23  41.32  40.40  39.48  38.54  37.60  36.66  35.71  34.77  33.83  32.90  31.97  31.04  30.13  29.23  28.34  27.46  26.60  25.76  24.93  24.11  23.32  22.54  21.79  21.05  20.33  19.64  18.96  18.30  17.66  17.04  16.44  15.86  15.29  14.74  14.20  13.68  13.17  12.66  12.16  11.67  11.18  10.68  10.18   9.66   9.12   8.55   7.93   7.24   6.46   5.53   4.36   2.74   0.00
  0.00  12.53  19.88  25.10  29.15  32.43  35.19  37.54  39.58  41.36  42.93  44.31  45.53  46.61  47.55  48.37  49.09  49.70  50.21  50.64  50.98  51.23  51.42  51.52  51.56  51.53  51.44  51.29  51.07  50.81  50.49  50.11  49.69  49.23  48.72  48.17  47.58  46.96  46.30  45.61  44.89  44.15  43.38  42.58  41.77  40.94  40.10  39.24  38.37  37.49  36.60  35.71  34.82  33.92  33.03  32.14  31.25  30.37  29.49  28.63  27.77  26.93  26.10  25.28  24.48  23.69  22.92  22.17  21.43  20.72  20.02  19.34  18.68  18.03  17.41  16.80  16.22  15.64  15.09  14.55  14.03  13.52  13.02  12.53  12.06  11.58  11.11  10.65  10.17   9.69   9.20   8.69   8.14   7.55   6.90   6.16   5.27   4.16   2.61   0.00
  0.00  11.75  18.65  23.55  27.34  30.42  33.01  35.21  37.13  38.80  40.27  41.56  42.71  43.71  44.60  45.37  46.04  46.61  47.10  47.50  47.81  48.06  48.23  48.33  48.37  48.34  48.25  48.11  47.91  47.66  47.36  47.01  46.62  46.18  45.71  45.19  44.64  44.06  43.44  42.79  42.12  41.42  40.70  39.96  39.20  38.42  37.63  36.82  36.01  35.18  34.35  33.52  32.68  31.84  31.00  30.17  29.34  28.51  27.69  26.88  26.08  25.29  24.51  23.74  22.99  22.26  21.53  20.83  20.14  19.47  18.81  18.17  17.55  16.95  16.37  15.80  15.25  14.71  14.19  13.69  13.20  12.72  12.25  11.79  11.34  10.90  10.46  10.02   9.58   9.13   8.66   8.18   7.67   7.11   6.50   5.80   4.97   3.92   2.46   0.00
  0.00  10.84  17.20  21.72  25.22  28.06  30.45  32.48  34.25  35.79  37.15  38.34  39.40  40.33  41.14  41.86  42.47  43.00  43.45  43.82  44.11  44.33  44.49  44.59  44.62  44.59  44.52  44.38  44.20  43.97  43.69  43.37  43.01  42.61  42.17  41.70  41.19  40.65  40.08  39.49  38.87  38.22  37.56  36.87  36.17  35.46  34.73  33.98  33.23  32.47  31.71  30.94  30.17  29.39  28.62  27.85  27.09  26.32  25.57  24.82  24.08  23.35  22.64  21.93  21.24  20.56  19.89  19.24  18.61  17.99  17.38  16.80  16.22  15.67  15.13  14.61  14.10  13.60  13.12  12.66  12.21  11.76  11.33  10.91  10.50  10.09   9.68   9.27   8.87   8.45   8.02   7.57   7.10   6.59   6.02   5.37   4.60   3.63   2.28   0.00
  0.00   9.75  15.47  19.54  22.69  25.24  27.39  29.22  30.81  32.19  33.41  34.49  35.44  36.27  37.01  37.65  38.20  38.68  39.08  39.41  39.68  39.88  40.02  40.10  40.14  40.11  40.04  39.92  39.76  39.55  39.31  39.02  38.69  38.33  37.94  37.51  37.06  36.57  36.06  35.53  34.97  34.39  33.79  33.18  32.55  31.90  31.25  30.58  29.91  29.22  28.54  27.85  27.15  26.46  25.76  25.07  24.38  23.70  23.02  22.35  21.68  21.03  20.38  19.75  19.13  18.52  17.92  17.33  16.76  16.21  15.66  15.13  14.62  14.12  13.64  13.17  12.71  12.26  11.83  11.41  11.01  10.61  10.22   9.84   9.47   9.10   8.74   8.37   8.00   7.63   7.24   6.84   6.41   5.95   5.44   4.85   4.15   3.28   2.06   0.00
  0.00   8.41  13.34  16.85  19.56  21.76  23.61  25.19  26.56  27.75  28.81  29.73  30.55  31.27  31.90  32.46  32.94  33.35  33.69  33.98  34.21  34.38  34.50  34.58  34.60  34.59  34.52  34.42  34.28  34.10  33.89  33.64  33.36  33.05  32.71  32.34  31.95  31.53  31.10  30.63  30.15  29.66  29.14  28.61  28.07  27.51  26.95  26.38  25.79  25.21  24.61  24.02  23.42  22.82  22.23  21.63  21.04  20.45  19.86  19.28  18.71  18.15  17.59  17.05  16.51  15.98  15.47  14.96  14.47  13.99  13.53  13.07  12.63  12.20  11.78  11.37  10.98  10.60  10.23   9.87   9.51   9.17   8.84   8.51   8.19   7.87   7.56   7.24   6.92   6.60   6.26   5.92   5.55   5.15   4.70   4.20   3.60   2.84   1.78   0.00
  0.00   6.67  10.58  13.36  15.51  17.26  18.72  19.97  21.06  22.00  22.84  23.57  24.22  24.79  25.30  25.73  26.11  26.44  26.71  26.94  27.12  27.26  27.36  27.41  27.44  27.42  27.37  27.29  27.18  27.04  26.87  26.67  26.45  26.21  25.94  25.65  25.34  25.01  24.66  24.29  23.91  23.52  23.11  22.69  22.26  21.82  21.37  20.92  20.46  19.99  19.52  19.05  18.58  18.11  17.63  17.16  16.69  16.22  15.76  15.30  14.85  14.40  13.96  13.53  13.10  12.69  12.28  11.88  11.49  11.11  10.74  10.38  10.03   9.69   9.36   9.04   8.72   8.42   8.13   7.84   7.56   7.29   7.03   6.77   6.51   6.26   6.01   5.76   5.51   5.25   4.98   4.71   4.41   4.10   3.74   3.34   2.86   2.26   1.42   0.00
  0.00   4.21   6.67   8.43   9.78  10.89  11.81  12.60  13.28  13.88  14.41  14.87  15.28  15.64  15.96  16.24  16.48  16.68  16.85  17.00  17.11  17.20  17.26  17.30  17.31  17.30  17.27  17.22  17.15  17.06  16.95  16.83  16.69  16.54  16.37  16.18  15.99  15.78  15.56  15.33  15.09  14.84  14.58  14.32  14.05  13.77  13.49  13.20  12.91  12.62  12.32  12.03  11.73  11.43  11.13  10.83  10.54  10.24   9.95   9.66   9.38   9.09   8.82   8.54   8.28   8.01   7.76   7.50   7.26   7.02   6.79   6.56   6.34   6.12   5.91   5.71   5.52   5.32   5.14   4.96   4.78   4.61   4.44   4.28   4.12   3.96   3.80   3.64   3.49   3.32   3.16   2.98   2.80   2.59   2.37   2.12   1.81   1.43   0.90   0.00
  0.00   0.00   0.00   0.00   0.00   0.00   0.00   0.00   0.00   0.00   0.00   0.00   0.00   0.00   0.00   0.00   0.00   0.00   0.00   0.00   0.00   0.00   0.00   0.00   0.00   0.00   0.00   0.00   0.00   0.00   0.00   0.00   0.00   0.00   0.00   0.00   0.00   0.00   0.00   0.00   0.00   0.00   0.00   0.00   0.00   0.00   0.00   0.00   0.00   0.00   0.00   0.00   0.00   0.00   0.00   0.00   0.00   0.00   0.00   0.00   0.00   0.00   0.00   0.00   0.00   0.00   0.00   0.00   0.00   0.00   0.00   0.00   0.00   0.00   0.00   0.00   0.00   0.00   0.00   0.00   0.00   0.00   0.00   0.00   0.00   0.00   0.00   0.00   0.00   0.00   0.00   0.00   0.00   0.00   0.00   0.00   0.00   0.00   0.00   0.00
