# Generated with dmote-topology, version 0.1.0-SNAPSHOT, settings {:precision 2, :x-c 2.0, :x-extent 100, :x-mu 70.0, :x-sigma 18.0, :y-c 2.0, :y-extent 100, :y-mu 15.0, :y-sigma 28.0, :z-extent 100, :z-min 0}.
  0.00   0.00   0.00   0.00   0.00   0.00   0.00   0.00   0.00   0.00   0.00   0.00   0.00   0.00   0.00   0.00   0.00   0.00   0.00   0.00   0.00   0.00   0.00   0.00   0.00   0.00   0.00   0.00   0.00   0.00   0.00   0.00   0.00   0.00   0.00   0.00   0.00   0.00   0.00   0.00   0.00   0.00   0.00   0.00   0.00   0.00   0.00   0.00   0.00   0.00   0.00   0.00   0.00   0.00   0.00   0.00   0.00   0.00   0.00   0.00   0.00   0.00   0.00   0.00   0.00   0.00   0.00   0.00   0.00   0.00   0.00   0.00   0.00   0.00   0.00   0.00   0.00   0.00   0.00   0.00   0.00   0.00   0.00   0.00   0.00   0.00   0.00   0.00   0.00   0.00   0.00   0.00   0.00   0.00   0.00   0.00   0.00   0.00   0.00   0.00
  0.00   2.82   4.46   5.61   6.50   7.22   7.82   8.33   8.78   9.17   9.52   9.83  10.12  10.37  10.60  10.81  11.00  11.17  11.32  11.46  11.58  11.69  11.78  11.85  11.91  11.95  11.97  11.98  11.97  11.95  11.90  11.84  11.76  11.65  11.53  11.39  11.22  11.03  10.83  10.59  10.34  10.07   9.77   9.46   9.12   8.77   8.40   8.02   7.62   7.21   6.79   6.36   5.93   5.50   5.08   4.65   4.24   3.84   3.45   3.08   2.73   2.40   2.10   1.83   1.60   1.39   1.22   1.09   0.99   0.93   0.90   0.91   0.96   1.04   1.16   1.30   1.47   1.67   1.89   2.12   2.37   2.63   2.89   3.15   3.41   3.66   3.90   4.12   4.31   4.47   4.58   4.66   4.67   4.61   4.46   4.20   3.78   3.11   2.04   0.00
  0.00   4.42   6.98   8.79  10.18  11.31  12.25  13.05  13.75  14.37  14.92  15.41  15.85  16.25  16.61  16.94  17.24  17.50  17.74  17.96  18.14  18.31  18.45  18.56  18.65  18.71  18.75  18.76  18.75  18.71  18.64  18.53  18.40  18.24  18.04  17.82  17.55  17.26  16.93  16.56  16.16  15.73  15.26  14.76  14.23  13.67  13.09  12.48  11.85  11.20  10.54   9.87   9.19   8.51   7.83   7.16   6.51   5.87   5.26   4.67   4.12   3.61   3.13   2.71   2.33   2.01   1.74   1.53   1.37   1.28   1.24   1.26   1.34   1.47   1.65   1.88   2.15   2.46   2.81   3.18   3.58   3.99   4.41   4.83   5.24   5.64   6.02   6.36   6.67   6.92   7.12   7.24   7.26   7.18   6.95   6.55   5.89   4.86   3.18   0.00
  0.00   5.51   8.72  10.97  12.71  14.11  15.28  16.29  17.16  17.93  18.62  19.23  19.78  20.28  20.73  21.14  21.51  21.84  22.14  22.41  22.64  22.84  23.02  23.16  23.27  23.35  23.39  23.41  23.39  23.33  23.24  23.11  22.94  22.74  22.49  22.20  21.87  21.50  21.08  20.62  20.12  19.57  18.98  18.35  17.69  16.98  16.25  15.48  14.69  13.87  13.04  12.19  11.33  10.48   9.63   8.79   7.96   7.16   6.39   5.65   4.96   4.31   3.72   3.18   2.71   2.30   1.96   1.70   1.50   1.39   1.34   1.37   1.47   1.63   1.86   2.15   2.50   2.89   3.33   3.80   4.30   4.82   5.35   5.89   6.41   6.92   7.40   7.84   8.23   8.55   8.80   8.96   9.00   8.90   8.63   8.13   7.32   6.04   3.96   0.00
  0.00   6.33  10.01  12.61  14.60  16.21  17.56  18.71  19.72  20.60  21.39  22.09  22.73  23.30  23.82  24.29  24.71  25.09  25.43  25.74  26.01  26.24  26.44  26.60  26.72  26.81  26.86  26.88  26.85  26.79  26.68  26.53  26.34  26.09  25.81  25.47  25.09  24.65  24.17  23.63  23.05  22.42  21.74  21.01  20.23  19.42  18.57  17.68  16.76  15.81  14.85  13.87  12.88  11.89  10.90   9.92   8.97   8.04   7.15   6.30   5.49   4.74   4.06   3.44   2.89   2.42   2.03   1.72   1.50   1.37   1.31   1.35   1.46   1.66   1.93   2.27   2.67   3.13   3.64   4.19   4.77   5.37   5.99   6.61   7.22   7.81   8.37   8.89   9.34   9.73  10.03  10.21  10.27  10.17   9.86   9.30   8.37   6.92   4.53   0.00
  0.00   6.98  11.04  13.89  16.09  17.87  19.35  20.63  21.73  22.71  23.57  24.35  25.05  25.68  26.25  26.77  27.23  27.65  28.03  28.37  28.66  28.92  29.13  29.31  29.45  29.54  29.60  29.61  29.58  29.51  29.39  29.22  29.00  28.73  28.41  28.04  27.61  27.13  26.59  26.00  25.35  24.64  23.88  23.07  22.22  21.31  20.36  19.37  18.35  17.30  16.23  15.14  14.04  12.94  11.85  10.76   9.70   8.67   7.68   6.74   5.84   5.01   4.25   3.56   2.96   2.44   2.00   1.67   1.42   1.27   1.21   1.25   1.38   1.60   1.90   2.28   2.73   3.24   3.81   4.42   5.07   5.75   6.44   7.13   7.81   8.47   9.10   9.68  10.19  10.62  10.96  11.18  11.25  11.14  10.82  10.20   9.19   7.60   4.98   0.00
  0.00   7.51  11.87  14.95  17.31  19.22  20.82  22.19  23.38  24.43  25.36  26.20  26.95  27.63  28.24  28.80  29.30  29.75  30.15  30.51  30.83  31.10  31.34  31.53  31.67  31.77  31.83  31.85  31.81  31.73  31.60  31.41  31.18  30.88  30.54  30.13  29.66  29.14  28.56  27.91  27.21  26.44  25.62  24.74  23.81  22.83  21.80  20.73  19.63  18.49  17.33  16.15  14.96  13.76  12.58  11.41  10.26   9.14   8.07   7.04   6.08   5.18   4.35   3.61   2.95   2.39   1.92   1.56   1.29   1.13   1.07   1.12   1.26   1.50   1.82   2.24   2.73   3.28   3.90   4.57   5.28   6.01   6.76   7.51   8.26   8.98   9.66  10.29  10.85  11.33  11.70  11.94  12.03  11.93  11.58  10.93   9.86   8.15   5.34   0.00
  0.00   7.95  12.58  15.83  18.34  20.36  22.05  23.50  24.76  25.87  26.86  27.75  28.54  29.26  29.91  30.50  31.03  31.51  31.94  32.32  32.65  32.94  33.19  33.39  33.54  33.65  33.71  33.72  33.68  33.59  33.45  33.25  33.00  32.68  32.31  31.88  31.38  30.82  30.20  29.51  28.76  27.94  27.07  26.13  25.14  24.09  23.00  21.86  20.68  19.46  18.22  16.97  15.70  14.43  13.16  11.91  10.69   9.50   8.35   7.26   6.23   5.28   4.40   3.61   2.91   2.31   1.81   1.42   1.14   0.97   0.91   0.96   1.11   1.37   1.72   2.16   2.68   3.28   3.94   4.65   5.41   6.20   7.00   7.81   8.60   9.38  10.11  10.79  11.39  11.90  12.31  12.57  12.67  12.57  12.22  11.54  10.40   8.60   5.65   0.00
  0.00   8.34  13.18  16.59  19.22  21.34  23.11  24.63  25.95  27.12  28.15  29.08  29.91  30.67  31.35  31.96  32.52  33.02  33.47  33.87  34.22  34.52  34.77  34.98  35.14  35.25  35.31  35.33  35.28  35.19  35.04  34.83  34.56  34.23  33.83  33.38  32.85  32.26  31.60  30.88  30.08  29.22  28.30  27.31  26.27  25.16  24.01  22.80  21.56  20.28  18.98  17.65  16.31  14.97  13.64  12.32  11.03   9.78   8.57   7.42   6.34   5.33   4.41   3.57   2.84   2.20   1.68   1.27   0.98   0.80   0.74   0.79   0.95   1.22   1.60   2.06   2.62   3.25   3.95   4.70   5.50   6.33   7.18   8.04   8.88   9.70  10.48  11.20  11.84  12.38  12.81  13.10  13.22  13.12  12.75  12.05  10.87   8.99   5.90   0.00
  0.00   8.67  13.71  17.26  19.99  22.19  24.04  25.62  26.99  28.20  29.28  30.24  31.11  31.89  32.60  33.24  33.82  34.34  34.81  35.22  35.59  35.90  36.16  36.38  36.54  36.66  36.72  36.73  36.69  36.58  36.43  36.20  35.92  35.58  35.16  34.68  34.13  33.52  32.83  32.07  31.24  30.34  29.37  28.34  27.25  26.09  24.88  23.63  22.33  20.99  19.62  18.24  16.84  15.44  14.04  12.67  11.32  10.01   8.75   7.55   6.42   5.36   4.40   3.52   2.76   2.10   1.55   1.12   0.82   0.63   0.57   0.62   0.80   1.08   1.47   1.96   2.54   3.21   3.94   4.73   5.57   6.44   7.33   8.23   9.11   9.97  10.79  11.54  12.22  12.80  13.25  13.56  13.68  13.59  13.22  12.49  11.28   9.33   6.13   0.00
  0.00   8.97  14.18  17.85  20.67  22.96  24.86  26.50  27.92  29.17  30.28  31.28  32.18  32.99  33.72  34.38  34.98  35.52  36.00  36.43  36.80  37.13  37.40  37.62  37.79  37.91  37.97  37.98  37.93  37.83  37.66  37.43  37.14  36.77  36.35  35.85  35.28  34.63  33.92  33.13  32.26  31.33  30.33  29.25  28.11  26.92  25.66  24.35  23.00  21.61  20.20  18.76  17.30  15.85  14.40  12.97  11.57  10.21   8.90   7.65   6.48   5.38   4.38   3.48   2.68   1.99   1.43   0.99   0.67   0.48   0.41   0.47   0.65   0.95   1.36   1.87   2.47   3.16   3.93   4.75   5.62   6.53   7.46   8.39   9.32  10.21  11.06  11.85  12.56  13.16  13.64  13.96  14.10  14.01  13.63  12.89  11.64   9.63   6.32   0.00
  0.00   9.24  14.61  18.39  21.29  23.64  25.61  27.29  28.76  30.05  31.19  32.22  33.14  33.98  34.73  35.41  36.03  36.58  37.08  37.52  37.90  38.24  38.52  38.74  38.92  39.04  39.10  39.11  39.06  38.95  38.78  38.54  38.23  37.86  37.41  36.90  36.31  35.64  34.90  34.08  33.19  32.23  31.19  30.08  28.90  27.66  26.36  25.01  23.62  22.18  20.72  19.23  17.73  16.22  14.73  13.25  11.80  10.40   9.04   7.75   6.54   5.41   4.37   3.44   2.61   1.91   1.32   0.86   0.54   0.34   0.27   0.33   0.52   0.83   1.25   1.78   2.41   3.13   3.92   4.77   5.68   6.62   7.58   8.54   9.50  10.43  11.31  12.13  12.86  13.49  13.99  14.33  14.48  14.39  14.01  13.24  11.96   9.90   6.50   0.00
  0.00   9.48  15.00  18.88  21.86  24.27  26.29  28.02  29.52  30.85  32.02  33.08  34.03  34.88  35.66  36.36  36.99  37.56  38.07  38.52  38.91  39.25  39.54  39.78  39.95  40.08  40.14  40.15  40.10  39.98  39.80  39.56  39.24  38.85  38.40  37.86  37.26  36.57  35.81  34.97  34.05  33.05  31.98  30.84  29.63  28.35  27.02  25.63  24.19  22.71  21.20  19.67  18.12  16.57  15.03  13.51  12.02  10.57   9.18   7.85   6.60   5.44   4.37   3.41   2.56   1.84   1.24   0.77   0.43   0.23   0.16   0.22   0.42   0.74   1.17   1.72   2.37   3.10   3.92   4.80   5.73   6.70   7.69   8.69   9.68  10.64  11.55  12.39  13.15  13.80  14.31  14.67  14.82  14.74  14.35  13.57  12.26  10.15   6.67   0.00
  0.00   9.71  15.36  19.33  22.39  24.86  26.93  28.70  30.24  31.59  32.80  33.88  34.85  35.73  36.52  37.23  37.88  38.46  38.98  39.45  39.85  40.20  40.50  40.73  40.92  41.04  41.11  41.11  41.06  40.94  40.76  40.50  40.18  39.78  39.31  38.77  38.14  37.44  36.65  35.79  34.85  33.82  32.73  31.55  30.31  29.00  27.63  26.20  24.73  23.21  21.66  20.09  18.50  16.91  15.33  13.77  12.24  10.76   9.33   7.97   6.68   5.49   4.39   3.41   2.54   1.79   1.18   0.69   0.35   0.14   0.07   0.14   0.34   0.67   1.12   1.68   2.34   3.10   3.94   4.84   5.80   6.80   7.82   8.84   9.86  10.84  11.78  12.65  13.43  14.09  14.63  14.99  15.16  15.07  14.68  13.89  12.55  10.39   6.83   0.00
  0.00   9.93  15.70  19.76  22.89  25.41  27.53  29.34  30.91  32.30  33.53  34.63  35.62  36.52  37.33  38.06  38.72  39.32  39.85  40.32  40.74  41.09  41.39  41.64  41.82  41.95  42.02  42.03  41.97  41.85  41.66  41.40  41.07  40.66  40.18  39.62  38.98  38.26  37.46  36.57  35.61  34.56  33.44  32.24  30.96  29.62  28.22  26.76  25.25  23.70  22.11  20.50  18.88  17.25  15.63  14.04  12.47  10.95   9.49   8.09   6.78   5.56   4.44   3.43   2.54   1.78   1.15   0.65   0.30   0.09   0.02   0.09   0.29   0.63   1.09   1.66   2.34   3.12   3.98   4.90   5.89   6.91   7.95   9.00  10.04  11.05  12.01  12.90  13.70  14.38  14.93  15.31  15.48  15.39  14.99  14.18  12.82  10.61   6.97   0.00
  0.00  10.13  16.03  20.17  23.36  25.94  28.10  29.94  31.55  32.96  34.22  35.35  36.36  37.28  38.10  38.85  39.53  40.13  40.68  41.16  41.58  41.95  42.25  42.50  42.69  42.82  42.89  42.90  42.84  42.71  42.52  42.25  41.92  41.50  41.01  40.44  39.78  39.05  38.23  37.33  36.34  35.27  34.12  32.90  31.60  30.23  28.80  27.30  25.76  24.18  22.56  20.91  19.26  17.59  15.94  14.31  12.71  11.16   9.67   8.25   6.90   5.66   4.51   3.48   2.57   1.79   1.15   0.65   0.29   0.07   0.00   0.07   0.28   0.62   1.09   1.68   2.38   3.17   4.04   4.99   5.99   7.04   8.10   9.18  10.24  11.27  12.25  13.16  13.97  14.67  15.23  15.62  15.79  15.71  15.30  14.47  13.08  10.83   7.12   0.00
  0.00  10.33  16.34  20.57  23.82  26.45  28.65  30.53  32.17  33.61  34.89  36.04  37.07  38.01  38.85  39.61  40.30  40.92  41.47  41.96  42.39  42.77  43.08  43.33  43.53  43.66  43.73  43.74  43.68  43.55  43.35  43.08  42.74  42.32  41.81  41.23  40.56  39.81  38.98  38.06  37.06  35.97  34.80  33.55  32.22  30.83  29.37  27.85  26.28  24.66  23.01  21.33  19.64  17.95  16.27  14.61  12.98  11.40   9.87   8.42   7.06   5.79   4.62   3.57   2.64   1.85   1.19   0.68   0.31   0.09   0.02   0.09   0.30   0.65   1.13   1.73   2.44   3.25   4.14   5.10   6.13   7.19   8.28   9.37  10.45  11.50  12.50  13.42  14.26  14.97  15.54  15.93  16.11  16.02  15.60  14.76  13.34  11.05   7.26   0.00
  0.00  10.53  16.64  20.95  24.26  26.94  29.18  31.10  32.77  34.24  35.54  36.71  37.77  38.72  39.57  40.35  41.05  41.68  42.25  42.75  43.19  43.57  43.88  44.14  44.34  44.48  44.55  44.56  44.50  44.37  44.17  43.89  43.54  43.11  42.60  42.01  41.33  40.57  39.72  38.78  37.76  36.66  35.47  34.19  32.85  31.43  29.94  28.40  26.80  25.15  23.47  21.77  20.05  18.33  16.61  14.92  13.27  11.66  10.11   8.63   7.24   5.95   4.76   3.69   2.75   1.94   1.27   0.75   0.38   0.15   0.08   0.15   0.37   0.72   1.21   1.82   2.54   3.36   4.27   5.25   6.29   7.37   8.47   9.58  10.68  11.75  12.76  13.70  14.55  15.27  15.85  16.25  16.42  16.33  15.91  15.05  13.59  11.26   7.40   0.00
  0.00  10.72  16.94  21.33  24.70  27.43  29.71  31.66  33.36  34.85  36.18  37.37  38.44  39.41  40.29  41.08  41.79  42.43  43.01  43.52  43.97  44.35  44.68  44.94  45.14  45.28  45.35  45.36  45.30  45.17  44.97  44.69  44.34  43.90  43.38  42.78  42.09  41.32  40.46  39.51  38.47  37.34  36.13  34.84  33.48  32.03  30.52  28.95  27.33  25.66  23.95  22.22  20.47  18.72  16.98  15.27  13.58  11.95  10.37   8.87   7.46   6.15   4.94   3.85   2.90   2.07   1.40   0.86   0.48   0.26   0.18   0.25   0.47   0.83   1.32   1.94   2.67   3.51   4.43   5.42   6.48   7.57   8.69   9.82  10.94  12.02  13.05  14.00  14.86  15.59  16.17  16.57  16.75  16.65  16.22  15.34  13.85  11.47   7.54   0.00
  0.00  10.90  17.24  21.70  25.13  27.91  30.23  32.21  33.94  35.46  36.81  38.03  39.12  40.10  40.99  41.80  42.52  43.18  43.76  44.28  44.74  45.13  45.46  45.73  45.93  46.08  46.15  46.16  46.10  45.97  45.77  45.49  45.13  44.68  44.16  43.55  42.85  42.07  41.19  40.23  39.18  38.04  36.81  35.50  34.11  32.65  31.12  29.52  27.88  26.18  24.45  22.69  20.92  19.15  17.38  15.64  13.93  12.27  10.67   9.15   7.72   6.38   5.16   4.06   3.08   2.25   1.56   1.02   0.63   0.40   0.32   0.40   0.62   0.98   1.48   2.10   2.85   3.69   4.62   5.63   6.70   7.81   8.94  10.09  11.21  12.31  13.35  14.32  15.18  15.92  16.51  16.91  17.09  16.98  16.53  15.63  14.12  11.69   7.68   0.00
  0.00  11.09  17.53  22.07  25.56  28.38  30.74  32.76  34.52  36.07  37.44  38.68  39.79  40.79  41.69  42.51  43.25  43.92  44.51  45.04  45.50  45.90  46.24  46.52  46.73  46.87  46.95  46.96  46.90  46.77  46.56  46.28  45.92  45.47  44.94  44.32  43.62  42.82  41.93  40.96  39.89  38.74  37.49  36.17  34.76  33.28  31.73  30.11  28.44  26.72  24.97  23.19  21.39  19.60  17.81  16.04  14.31  12.63  11.01   9.46   8.01   6.66   5.42   4.30   3.31   2.47   1.77   1.22   0.83   0.59   0.51   0.58   0.80   1.17   1.68   2.31   3.06   3.91   4.85   5.87   6.95   8.08   9.22  10.38  11.52  12.63  13.68  14.65  15.53  16.27  16.86  17.26  17.43  17.32  16.86  15.93  14.39  11.91   7.82   0.00
  0.00  11.27  17.83  22.44  25.99  28.86  31.26  33.31  35.10  36.67  38.07  39.33  40.45  41.47  42.39  43.23  43.98  44.66  45.26  45.80  46.27  46.68  47.02  47.30  47.52  47.67  47.75  47.76  47.70  47.57  47.36  47.08  46.71  46.26  45.72  45.10  44.39  43.58  42.69  41.70  40.62  39.45  38.19  36.85  35.43  33.93  32.36  30.72  29.03  27.29  25.52  23.71  21.90  20.07  18.26  16.47  14.72  13.02  11.38   9.82   8.34   6.97   5.72   4.58   3.58   2.73   2.02   1.46   1.06   0.82   0.74   0.81   1.04   1.41   1.91   2.55   3.31   4.17   5.12   6.15   7.24   8.38   9.54  10.70  11.85  12.97  14.03  15.01  15.89  16.64  17.23  17.63  17.79  17.67  17.19  16.24  14.66  12.13   7.97   0.00
  0.00  11.46  18.12  22.81  26.42  29.34  31.78  33.87  35.68  37.28  38.71  39.98  41.13  42.16  43.10  43.95  44.71  45.40  46.02  46.56  47.05  47.46  47.81  48.10  48.32  48.47  48.56  48.57  48.51  48.38  48.17  47.89  47.52  47.06  46.52  45.89  45.17  44.36  43.45  42.45  41.36  40.18  38.91  37.55  36.11  34.60  33.01  31.35  29.64  27.89  26.09  24.27  22.43  20.59  18.75  16.94  15.17  13.45  11.79  10.21   8.72   7.33   6.06   4.91   3.90   3.03   2.31   1.75   1.34   1.10   1.01   1.08   1.31   1.68   2.19   2.84   3.60   4.47   5.43   6.47   7.57   8.71   9.88  11.05  12.21  13.34  14.41  15.39  16.28  17.03  17.62  18.01  18.17  18.04  17.54  16.56  14.95  12.36   8.12   0.00
  0.00  11.65  18.42  23.19  26.86  29.82  32.30  34.42  36.27  37.90  39.34  40.64  41.81  42.86  43.81  44.67  45.45  46.15  46.78  47.34  47.83  48.25  48.61  48.90  49.12  49.28  49.37  49.39  49.33  49.20  48.99  48.70  48.33  47.87  47.33  46.69  45.96  45.14  44.23  43.22  42.12  40.93  39.65  38.27  36.82  35.29  33.68  32.01  30.28  28.51  26.69  24.85  22.99  21.13  19.28  17.45  15.65  13.91  12.23  10.64   9.13   7.73   6.44   5.28   4.26   3.38   2.65   2.08   1.67   1.42   1.33   1.40   1.63   2.00   2.51   3.16   3.93   4.80   5.77   6.82   7.93   9.08  10.25  11.44  12.60  13.73  14.81  15.80  16.68  17.44  18.02  18.41  18.56  18.41  17.89  16.90  15.24  12.60   8.27   0.00
  0.00  11.84  18.72  23.57  27.30  30.31  32.83  34.99  36.86  38.52  39.99  41.31  42.49  43.56  44.53  45.40  46.20  46.91  47.55  48.11  48.61  49.05  49.41  49.71  49.94  50.10  50.19  50.21  50.16  50.03  49.82  49.53  49.16  48.70  48.15  47.51  46.77  45.95  45.03  44.01  42.90  41.70  40.40  39.02  37.55  36.00  34.38  32.69  30.95  29.15  27.32  25.46  23.58  21.70  19.83  17.98  16.17  14.41  12.72  11.11   9.58   8.17   6.86   5.69   4.66   3.77   3.03   2.45   2.04   1.78   1.69   1.76   1.98   2.36   2.88   3.53   4.30   5.18   6.15   7.20   8.32   9.48  10.66  11.85  13.02  14.16  15.23  16.23  17.11  17.87  18.45  18.83  18.97  18.81  18.27  17.24  15.54  12.85   8.43   0.00
  0.00  12.03  19.03  23.95  27.74  30.80  33.37  35.56  37.46  39.15  40.64  41.98  43.18  44.27  45.26  46.15  46.95  47.68  48.33  48.90  49.41  49.85  50.22  50.53  50.77  50.93  51.03  51.05  51.00  50.87  50.66  50.37  50.00  49.54  48.98  48.34  47.60  46.77  45.84  44.82  43.70  42.48  41.18  39.78  38.30  36.74  35.10  33.40  31.64  29.83  27.98  26.10  24.21  22.31  20.42  18.56  16.73  14.95  13.24  11.61  10.08   8.64   7.33   6.15   5.10   4.20   3.46   2.87   2.45   2.19   2.09   2.16   2.38   2.76   3.28   3.93   4.71   5.59   6.57   7.63   8.75   9.91  11.10  12.29  13.47  14.61  15.69  16.68  17.57  18.32  18.90  19.27  19.39  19.21  18.65  17.59  15.85  13.10   8.59   0.00
  0.00  12.23  19.34  24.34  28.19  31.30  33.91  36.13  38.07  39.78  41.30  42.66  43.89  44.99  45.99  46.90  47.72  48.45  49.12  49.70  50.22  50.67  51.05  51.36  51.60  51.78  51.88  51.90  51.85  51.73  51.52  51.23  50.85  50.39  49.83  49.19  48.44  47.61  46.67  45.64  44.51  43.29  41.97  40.57  39.07  37.50  35.85  34.14  32.36  30.54  28.67  26.78  24.87  22.95  21.05  19.16  17.32  15.53  13.80  12.16  10.61   9.16   7.84   6.64   5.58   4.67   3.92   3.33   2.90   2.64   2.54   2.60   2.83   3.20   3.72   4.37   5.15   6.04   7.02   8.08   9.21  10.38  11.57  12.76  13.95  15.09  16.17  17.16  18.04  18.79  19.36  19.72  19.83  19.64  19.05  17.95  16.17  13.36   8.75   0.00
  0.00  12.43  19.65  24.74  28.65  31.81  34.46  36.72  38.69  40.43  41.97  43.35  44.60  45.72  46.74  47.66  48.49  49.24  49.92  50.52  51.04  51.50  51.89  52.21  52.45  52.63  52.74  52.77  52.72  52.60  52.39  52.10  51.73  51.26  50.70  50.05  49.31  48.46  47.52  46.48  45.35  44.12  42.79  41.37  39.87  38.29  36.62  34.90  33.11  31.27  29.39  27.48  25.55  23.62  21.70  19.81  17.95  16.14  14.40  12.74  11.18   9.72   8.38   7.17   6.11   5.19   4.43   3.83   3.39   3.12   3.02   3.08   3.31   3.68   4.20   4.86   5.63   6.52   7.51   8.57   9.70  10.87  12.07  13.27  14.45  15.59  16.67  17.66  18.54  19.28  19.84  20.20  20.29  20.07  19.46  18.33  16.50  13.62   8.92   0.00
  0.00  12.63  19.97  25.13  29.11  32.32  35.01  37.31  39.31  41.08  42.65  44.05  45.32  46.46  47.50  48.43  49.28  50.04  50.73  51.34  51.88  52.34  52.74  53.06  53.32  53.50  53.61  53.65  53.60  53.48  53.28  52.99  52.61  52.14  51.59  50.93  50.18  49.34  48.39  47.35  46.20  44.96  43.63  42.20  40.69  39.09  37.42  35.68  33.88  32.03  30.13  28.21  26.27  24.33  22.39  20.48  18.61  16.78  15.03  13.36  11.78  10.31   8.96   7.74   6.67   5.74   4.97   4.36   3.92   3.65   3.54   3.60   3.82   4.20   4.72   5.37   6.15   7.04   8.03   9.10  10.23  11.40  12.60  13.80  14.98  16.12  17.20  18.19  19.06  19.79  20.35  20.69  20.77  20.52  19.88  18.72  16.84  13.89   9.10   0.00
  0.00  12.83  20.29  25.54  29.58  32.84  35.58  37.91  39.95  41.74  43.34  44.76  46.05  47.21  48.26  49.22  50.08  50.85  51.55  52.17  52.72  53.19  53.60  53.93  54.19  54.38  54.50  54.54  54.50  54.38  54.18  53.89  53.51  53.05  52.49  51.83  51.08  50.23  49.28  48.23  47.08  45.83  44.49  43.05  41.53  39.92  38.24  36.49  34.68  32.81  30.90  28.97  27.01  25.06  23.11  21.18  19.30  17.46  15.70  14.01  12.42  10.94   9.58   8.35   7.26   6.33   5.55   4.94   4.49   4.21   4.10   4.16   4.38   4.75   5.27   5.92   6.70   7.60   8.58   9.65  10.78  11.96  13.15  14.35  15.54  16.68  17.75  18.74  19.60  20.33  20.87  21.19  21.25  20.99  20.32  19.12  17.19  14.17   9.28   0.00
  0.00  13.04  20.61  25.95  30.05  33.37  36.15  38.52  40.59  42.41  44.03  45.48  46.79  47.97  49.04  50.01  50.88  51.67  52.38  53.02  53.57  54.06  54.47  54.81  55.08  55.28  55.40  55.44  55.40  55.29  55.09  54.80  54.43  53.96  53.40  52.74  51.99  51.13  50.18  49.12  47.97  46.72  45.37  43.92  42.39  40.78  39.08  37.32  35.50  33.62  31.70  29.75  27.79  25.82  23.86  21.92  20.02  18.17  16.39  14.69  13.09  11.60  10.23   8.99   7.90   6.95   6.17   5.55   5.10   4.81   4.70   4.75   4.96   5.33   5.85   6.51   7.29   8.18   9.17  10.24  11.37  12.54  13.74  14.94  16.12  17.25  18.32  19.30  20.16  20.88  21.41  21.72  21.76  21.47  20.76  19.52  17.55  14.46   9.46   0.00
  0.00  13.24  20.94  26.36  30.53  33.90  36.72  39.13  41.24  43.09  44.73  46.21  47.54  48.74  49.82  50.81  51.70  52.50  53.22  53.87  54.44  54.93  55.35  55.70  55.98  56.18  56.31  56.35  56.32  56.21  56.01  55.73  55.35  54.89  54.33  53.67  52.91  52.05  51.10  50.04  48.88  47.62  46.26  44.81  43.27  41.65  39.95  38.17  36.34  34.45  32.52  30.56  28.58  26.60  24.63  22.68  20.77  18.91  17.12  15.41  13.80  12.29  10.91   9.66   8.56   7.61   6.82   6.19   5.73   5.44   5.33   5.37   5.59   5.95   6.47   7.12   7.90   8.79   9.78  10.85  11.98  13.15  14.34  15.54  16.72  17.85  18.92  19.89  20.74  21.44  21.96  22.25  22.27  21.96  21.22  19.94  17.91  14.75   9.65   0.00
  0.00  13.45  21.27  26.78  31.01  34.44  37.30  39.76  41.89  43.77  45.44  46.94  48.29  49.51  50.62  51.62  52.52  53.34  54.07  54.73  55.31  55.81  56.24  56.60  56.88  57.09  57.22  57.28  57.25  57.14  56.95  56.67  56.29  55.83  55.27  54.61  53.85  52.99  52.03  50.96  49.80  48.54  47.17  45.72  44.17  42.54  40.83  39.05  37.20  35.30  33.36  31.39  29.41  27.41  25.43  23.47  21.54  19.67  17.87  16.15  14.53  13.01  11.62  10.37   9.26   8.30   7.50   6.86   6.40   6.11   5.98   6.03   6.24   6.60   7.11   7.76   8.54   9.43  10.42  11.48  12.61  13.78  14.98  16.17  17.34  18.47  19.53  20.50  21.34  22.03  22.53  22.80  22.80  22.46  21.69  20.37  18.28  15.05   9.84   0.00
  0.00  13.66  21.61  27.20  31.50  34.98  37.89  40.38  42.55  44.46  46.16  47.68  49.05  50.29  51.41  52.43  53.35  54.18  54.93  55.60  56.19  56.70  57.14  57.51  57.80  58.01  58.15  58.21  58.19  58.08  57.89  57.61  57.24  56.78  56.22  55.56  54.80  53.93  52.97  51.90  50.74  49.47  48.10  46.64  45.09  43.45  41.73  39.94  38.08  36.18  34.23  32.25  30.25  28.24  26.25  24.28  22.34  20.46  18.65  16.92  15.29  13.76  12.36  11.10   9.98   9.01   8.21   7.57   7.10   6.80   6.67   6.71   6.91   7.27   7.78   8.43   9.21  10.10  11.08  12.14  13.27  14.44  15.63  16.82  17.99  19.11  20.16  21.12  21.95  22.63  23.11  23.37  23.34  22.97  22.17  20.80  18.66  15.35  10.03   0.00
  0.00  13.88  21.94  27.62  31.99  35.52  38.48  41.01  43.21  45.15  46.88  48.42  49.82  51.08  52.22  53.25  54.19  55.03  55.79  56.47  57.07  57.60  58.05  58.42  58.72  58.94  59.09  59.15  59.13  59.03  58.84  58.57  58.20  57.73  57.17  56.51  55.75  54.89  53.93  52.86  51.68  50.41  49.04  47.57  46.01  44.37  42.64  40.84  38.98  37.07  35.11  33.12  31.11  29.09  27.09  25.11  23.16  21.27  19.45  17.71  16.07  14.54  13.13  11.86  10.73   9.75   8.94   8.29   7.82   7.51   7.38   7.42   7.62   7.97   8.48   9.13   9.90  10.78  11.77  12.83  13.95  15.11  16.30  17.49  18.65  19.76  20.81  21.76  22.58  23.24  23.71  23.94  23.89  23.49  22.65  21.24  19.04  15.66  10.23   0.00
  0.00  14.09  22.28  28.05  32.48  36.07  39.07  41.64  43.88  45.85  47.60  49.17  50.59  51.87  53.02  54.08  55.03  55.89  56.66  57.35  57.96  58.50  58.96  59.34  59.65  59.88  60.03  60.10  60.08  59.99  59.80  59.53  59.16  58.70  58.14  57.48  56.72  55.86  54.89  53.82  52.64  51.37  49.99  48.52  46.95  45.30  43.57  41.76  39.89  37.97  36.00  34.00  31.99  29.96  27.95  25.96  24.00  22.10  20.27  18.52  16.87  15.33  13.92  12.63  11.50  10.52   9.70   9.04   8.56   8.25   8.11   8.15   8.34   8.70   9.20   9.84  10.61  11.49  12.47  13.53  14.65  15.81  16.99  18.17  19.33  20.43  21.47  22.41  23.21  23.86  24.31  24.53  24.45  24.02  23.15  21.69  19.43  15.97  10.43   0.00
  0.00  14.30  22.62  28.47  32.98  36.62  39.67  42.27  44.54  46.54  48.32  49.92  51.36  52.66  53.83  54.90  55.87  56.74  57.53  58.23  58.86  59.40  59.87  60.26  60.57  60.81  60.97  61.04  61.04  60.94  60.76  60.49  60.13  59.67  59.11  58.45  57.69  56.83  55.86  54.78  53.61  52.33  50.95  49.47  47.90  46.24  44.50  42.69  40.82  38.89  36.91  34.90  32.88  30.85  28.82  26.82  24.86  22.95  21.11  19.36  17.70  16.15  14.72  13.43  12.29  11.30  10.47   9.82   9.33   9.01   8.87   8.90   9.09   9.44   9.94  10.58  11.34  12.22  13.19  14.25  15.36  16.52  17.69  18.87  20.02  21.12  22.14  23.07  23.86  24.49  24.92  25.12  25.02  24.56  23.64  22.14  19.82  16.29  10.63   0.00
  0.00  14.52  22.96  28.90  33.47  37.17  40.26  42.91  45.21  47.24  49.05  50.67  52.13  53.45  54.64  55.73  56.71  57.60  58.40  59.11  59.75  60.30  60.78  61.18  61.50  61.75  61.91  61.99  61.99  61.90  61.73  61.46  61.10  60.64  60.08  59.42  58.66  57.80  56.83  55.75  54.58  53.29  51.91  50.43  48.85  47.19  45.45  43.63  41.75  39.81  37.83  35.82  33.78  31.74  29.71  27.70  25.73  23.82  21.97  20.20  18.53  16.98  15.55  14.25  13.10  12.10  11.27  10.61  10.11   9.79   9.64   9.66   9.85  10.20  10.69  11.33  12.09  12.96  13.93  14.98  16.09  17.24  18.41  19.58  20.72  21.81  22.82  23.74  24.52  25.13  25.55  25.72  25.59  25.10  24.15  22.60  20.22  16.60  10.83   0.00
  0.00  14.73  23.30  29.32  33.96  37.71  40.85  43.54  45.88  47.94  49.77  51.42  52.90  54.24  55.45  56.55  57.55  58.45  59.27  59.99  60.64  61.21  61.69  62.10  62.43  62.68  62.85  62.94  62.94  62.86  62.69  62.42  62.07  61.61  61.06  60.40  59.64  58.77  57.80  56.73  55.55  54.26  52.88  51.39  49.81  48.15  46.40  44.57  42.69  40.74  38.76  36.73  34.69  32.65  30.61  28.59  26.61  24.69  22.83  21.06  19.39  17.82  16.38  15.08  13.92  12.92  12.08  11.41  10.91  10.58  10.43  10.45  10.63  10.97  11.46  12.09  12.85  13.72  14.68  15.73  16.83  17.97  19.14  20.30  21.43  22.51  23.51  24.41  25.18  25.78  26.17  26.32  26.16  25.64  24.65  23.05  20.62  16.92  11.03   0.00
  0.00  14.94  23.63  29.75  34.45  38.26  41.44  44.17  46.54  48.63  50.49  52.16  53.66  55.02  56.25  57.37  58.39  59.30  60.13  60.87  61.53  62.10  62.60  63.02  63.36  63.61  63.79  63.89  63.89  63.82  63.65  63.39  63.03  62.58  62.03  61.37  60.61  59.75  58.78  57.70  56.52  55.23  53.84  52.35  50.77  49.10  47.35  45.52  43.63  41.68  39.69  37.66  35.61  33.56  31.51  29.49  27.51  25.57  23.71  21.93  20.25  18.68  17.23  15.92  14.76  13.75  12.90  12.23  11.72  11.39  11.23  11.24  11.42  11.76  12.24  12.87  13.62  14.48  15.44  16.48  17.58  18.72  19.87  21.02  22.14  23.22  24.21  25.09  25.84  26.42  26.80  26.92  26.74  26.18  25.16  23.51  21.01  17.24  11.23   0.00
  0.00  15.16  23.96  30.17  34.94  38.80  42.03  44.79  47.20  49.32  51.21  52.90  54.42  55.80  57.05  58.19  59.22  60.15  60.99  61.74  62.41  62.99  63.50  63.93  64.27  64.54  64.72  64.82  64.84  64.77  64.60  64.35  63.99  63.54  62.99  62.34  61.58  60.72  59.75  58.67  57.49  56.20  54.81  53.32  51.73  50.06  48.30  46.47  44.57  42.62  40.62  38.59  36.53  34.47  32.42  30.39  28.40  26.46  24.59  22.81  21.12  19.54  18.09  16.77  15.60  14.59  13.74  13.05  12.54  12.21  12.04  12.05  12.22  12.55  13.03  13.65  14.40  15.26  16.21  17.24  18.33  19.46  20.61  21.75  22.87  23.93  24.91  25.78  26.51  27.08  27.43  27.53  27.32  26.73  25.66  23.97  21.41  17.55  11.43   0.00
  0.00  15.36  24.30  30.58  35.42  39.33  42.61  45.41  47.85  50.00  51.91  53.63  55.18  56.57  57.84  58.99  60.04  60.98  61.84  62.60  63.28  63.88  64.39  64.83  65.18  65.46  65.65  65.75  65.78  65.71  65.55  65.30  64.95  64.50  63.95  63.30  62.54  61.68  60.71  59.63  58.45  57.16  55.77  54.27  52.69  51.01  49.25  47.42  45.51  43.56  41.55  39.51  37.46  35.39  33.33  31.30  29.30  27.36  25.48  23.69  21.99  20.41  18.95  17.63  16.45  15.43  14.58  13.89  13.37  13.03  12.86  12.86  13.03  13.35  13.83  14.44  15.18  16.04  16.98  18.01  19.09  20.21  21.35  22.49  23.59  24.64  25.61  26.46  27.18  27.73  28.06  28.13  27.90  27.27  26.17  24.42  21.81  17.87  11.63   0.00
  0.00  15.57  24.62  31.00  35.90  39.86  43.18  46.02  48.49  50.67  52.61  54.35  55.92  57.34  58.62  59.79  60.85  61.81  62.68  63.45  64.14  64.75  65.28  65.72  66.08  66.36  66.56  66.67  66.70  66.64  66.48  66.24  65.89  65.45  64.90  64.25  63.50  62.63  61.66  60.59  59.40  58.11  56.72  55.23  53.64  51.96  50.20  48.36  46.45  44.49  42.48  40.44  38.38  36.31  34.24  32.20  30.20  28.25  26.37  24.57  22.87  21.28  19.82  18.49  17.31  16.28  15.42  14.72  14.20  13.86  13.68  13.68  13.84  14.16  14.63  15.24  15.97  16.82  17.76  18.78  19.85  20.97  22.10  23.22  24.31  25.35  26.31  27.15  27.85  28.38  28.69  28.74  28.47  27.82  26.67  24.88  22.20  18.18  11.83   0.00
  0.00  15.77  24.94  31.40  36.37  40.38  43.74  46.62  49.13  51.34  53.30  55.06  56.65  58.09  59.39  60.58  61.65  62.63  63.50  64.29  64.99  65.61  66.15  66.60  66.97  67.26  67.46  67.58  67.61  67.56  67.41  67.16  66.82  66.38  65.84  65.19  64.44  63.58  62.61  61.53  60.35  59.06  57.66  56.17  54.58  52.90  51.13  49.29  47.38  45.42  43.40  41.36  39.29  37.22  35.15  33.11  31.10  29.14  27.26  25.45  23.75  22.15  20.68  19.35  18.16  17.13  16.26  15.56  15.04  14.68  14.50  14.49  14.65  14.96  15.43  16.03  16.76  17.60  18.53  19.55  20.61  21.72  22.84  23.95  25.04  26.06  27.00  27.83  28.51  29.02  29.31  29.34  29.04  28.35  27.16  25.33  22.59  18.49  12.03   0.00
  0.00  15.97  25.26  31.80  36.83  40.90  44.30  47.21  49.75  51.99  53.98  55.76  57.37  58.83  60.15  61.35  62.44  63.43  64.32  65.12  65.83  66.46  67.00  67.46  67.84  68.14  68.35  68.47  68.51  68.46  68.31  68.07  67.74  67.30  66.76  66.11  65.36  64.50  63.54  62.46  61.28  59.99  58.59  57.10  55.51  53.82  52.06  50.21  48.30  46.33  44.32  42.27  40.20  38.12  36.05  34.00  31.99  30.03  28.14  26.33  24.62  23.02  21.54  20.21  19.01  17.98  17.10  16.40  15.87  15.51  15.32  15.31  15.46  15.77  16.23  16.82  17.55  18.38  19.31  20.31  21.37  22.47  23.58  24.68  25.75  26.77  27.69  28.51  29.17  29.66  29.93  29.93  29.61  28.88  27.66  25.77  22.97  18.80  12.22   0.00
  0.00  16.17  25.57  32.19  37.28  41.40  44.84  47.79  50.36  52.62  54.64  56.45  58.08  59.55  60.89  62.11  63.21  64.21  65.11  65.92  66.65  67.28  67.84  68.31  68.70  69.00  69.22  69.35  69.39  69.34  69.20  68.97  68.64  68.20  67.66  67.02  66.27  65.42  64.45  63.38  62.19  60.90  59.51  58.01  56.42  54.74  52.97  51.12  49.21  47.24  45.22  43.17  41.10  39.02  36.94  34.89  32.87  30.91  29.01  27.20  25.48  23.88  22.40  21.06  19.86  18.82  17.94  17.23  16.70  16.33  16.14  16.12  16.27  16.57  17.02  17.61  18.33  19.16  20.08  21.07  22.12  23.21  24.31  25.41  26.46  27.46  28.38  29.17  29.82  30.29  30.54  30.51  30.16  29.41  28.14  26.21  23.35  19.10  12.41   0.00
  0.00  16.36  25.87  32.57  37.72  41.89  45.37  48.36  50.96  53.25  55.29  57.12  58.77  60.26  61.61  62.84  63.96  64.98  65.89  66.71  67.45  68.09  68.66  69.13  69.53  69.84  70.06  70.20  70.25  70.21  70.08  69.84  69.51  69.08  68.55  67.91  67.16  66.31  65.35  64.27  63.09  61.80  60.41  58.91  57.32  55.63  53.86  52.02  50.10  48.13  46.11  44.06  41.98  39.90  37.82  35.76  33.74  31.78  29.88  28.06  26.34  24.73  23.25  21.90  20.70  19.66  18.77  18.06  17.52  17.15  16.95  16.93  17.07  17.37  17.81  18.40  19.10  19.92  20.84  21.82  22.87  23.95  25.04  26.12  27.17  28.15  29.05  29.83  30.47  30.91  31.14  31.09  30.71  29.92  28.62  26.64  23.72  19.40  12.60   0.00
  0.00  16.55  26.17  32.94  38.15  42.36  45.89  48.91  51.54  53.85  55.92  57.77  59.44  60.95  62.32  63.56  64.69  65.72  66.65  67.48  68.22  68.88  69.45  69.94  70.34  70.66  70.89  71.04  71.09  71.05  70.92  70.70  70.37  69.94  69.41  68.78  68.03  67.18  66.22  65.15  63.97  62.68  61.28  59.79  58.20  56.51  54.74  52.90  50.98  49.01  46.98  44.93  42.85  40.76  38.68  36.63  34.60  32.63  30.73  28.91  27.19  25.58  24.09  22.74  21.53  20.48  19.60  18.88  18.33  17.96  17.76  17.73  17.86  18.15  18.59  19.17  19.87  20.68  21.59  22.57  23.60  24.67  25.75  26.82  27.86  28.83  29.72  30.48  31.10  31.53  31.73  31.65  31.25  30.43  29.08  27.06  24.09  19.68  12.78   0.00
  0.00  16.73  26.45  33.30  38.56  42.82  46.39  49.44  52.10  54.44  56.53  58.40  60.09  61.61  63.00  64.26  65.41  66.44  67.38  68.23  68.98  69.64  70.22  70.72  71.13  71.45  71.69  71.84  71.90  71.87  71.75  71.52  71.20  70.78  70.25  69.62  68.88  68.03  67.07  66.00  64.82  63.53  62.14  60.65  59.05  57.37  55.60  53.75  51.84  49.86  47.84  45.78  43.70  41.61  39.53  37.47  35.45  33.47  31.57  29.75  28.02  26.41  24.92  23.56  22.35  21.30  20.41  19.68  19.13  18.75  18.55  18.51  18.64  18.93  19.36  19.93  20.63  21.43  22.33  23.30  24.33  25.39  26.46  27.52  28.54  29.50  30.37  31.12  31.71  32.12  32.30  32.21  31.77  30.92  29.54  27.47  24.44  19.97  12.96   0.00
  0.00  16.90  26.73  33.64  38.96  43.27  46.87  49.96  52.64  55.01  57.12  59.01  60.72  62.26  63.66  64.93  66.09  67.14  68.09  68.95  69.71  70.38  70.97  71.47  71.89  72.22  72.47  72.62  72.69  72.66  72.54  72.33  72.01  71.59  71.07  70.44  69.70  68.85  67.89  66.82  65.65  64.36  62.97  61.48  59.89  58.20  56.43  54.59  52.67  50.69  48.67  46.61  44.53  42.44  40.36  38.30  36.27  34.30  32.39  30.57  28.84  27.22  25.73  24.37  23.16  22.10  21.20  20.48  19.92  19.54  19.33  19.29  19.41  19.69  20.12  20.68  21.37  22.17  23.06  24.02  25.03  26.08  27.15  28.19  29.20  30.15  31.00  31.74  32.32  32.71  32.87  32.75  32.28  31.40  29.98  27.87  24.79  20.24  13.13   0.00
  0.00  17.07  26.99  33.98  39.35  43.70  47.34  50.45  53.17  55.56  57.69  59.60  61.32  62.88  64.30  65.58  66.75  67.81  68.77  69.64  70.41  71.09  71.69  72.20  72.63  72.96  73.21  73.38  73.45  73.43  73.31  73.10  72.79  72.37  71.85  71.22  70.49  69.64  68.69  67.62  66.45  65.16  63.77  62.28  60.69  59.01  57.24  55.39  53.48  51.50  49.48  47.42  45.34  43.25  41.17  39.11  37.08  35.10  33.19  31.37  29.64  28.02  26.52  25.16  23.94  22.88  21.98  21.25  20.69  20.31  20.09  20.04  20.16  20.44  20.86  21.41  22.10  22.89  23.77  24.72  25.73  26.77  27.82  28.85  29.85  30.78  31.63  32.34  32.91  33.28  33.41  33.27  32.78  31.86  30.41  28.25  25.12  20.51  13.30   0.00
  0.00  17.23  27.25  34.30  39.72  44.11  47.78  50.93  53.67  56.08  58.23  60.16  61.90  63.47  64.90  66.20  67.39  68.46  69.43  70.30  71.08  71.78  72.38  72.90  73.33  73.67  73.93  74.10  74.18  74.16  74.05  73.84  73.53  73.12  72.60  71.98  71.25  70.41  69.45  68.39  67.22  65.94  64.55  63.06  61.47  59.79  58.02  56.18  54.26  52.29  50.27  48.21  46.13  44.04  41.95  39.89  37.86  35.88  33.97  32.15  30.41  28.79  27.29  25.93  24.71  23.65  22.75  22.01  21.45  21.06  20.84  20.78  20.90  21.16  21.58  22.13  22.81  23.59  24.46  25.40  26.40  27.43  28.47  29.50  30.48  31.40  32.23  32.93  33.47  33.83  33.94  33.77  33.26  32.31  30.83  28.63  25.44  20.76  13.46   0.00
  0.00  17.38  27.49  34.60  40.08  44.50  48.21  51.38  54.14  56.58  58.75  60.70  62.45  64.04  65.48  66.80  67.99  69.07  70.05  70.94  71.73  72.43  73.04  73.56  74.00  74.35  74.61  74.79  74.87  74.86  74.75  74.55  74.24  73.84  73.32  72.70  71.98  71.14  70.19  69.13  67.96  66.68  65.29  63.81  62.22  60.54  58.77  56.93  55.02  53.04  51.02  48.97  46.89  44.80  42.71  40.65  38.62  36.64  34.73  32.90  31.17  29.55  28.05  26.68  25.46  24.39  23.49  22.75  22.18  21.79  21.56  21.51  21.61  21.88  22.28  22.83  23.50  24.27  25.13  26.07  27.06  28.08  29.11  30.12  31.09  32.00  32.81  33.50  34.02  34.36  34.45  34.26  33.72  32.75  31.23  28.99  25.75  21.01  13.62   0.00
  0.00  17.53  27.72  34.89  40.41  44.88  48.61  51.81  54.60  57.06  59.24  61.21  62.98  64.58  66.04  67.36  68.56  69.66  70.65  71.54  72.34  73.04  73.66  74.19  74.64  75.00  75.26  75.44  75.53  75.52  75.42  75.22  74.92  74.52  74.01  73.39  72.67  71.83  70.89  69.83  68.66  67.39  66.00  64.52  62.93  61.26  59.49  57.65  55.74  53.77  51.75  49.69  47.62  45.53  43.44  41.38  39.35  37.38  35.46  33.63  31.90  30.28  28.78  27.41  26.19  25.12  24.21  23.47  22.90  22.50  22.27  22.21  22.31  22.57  22.97  23.51  24.17  24.93  25.79  26.71  27.69  28.70  29.72  30.72  31.68  32.58  33.37  34.04  34.55  34.87  34.95  34.73  34.16  33.16  31.61  29.33  26.05  21.24  13.77   0.00
  0.00  17.67  27.93  35.17  40.73  45.23  48.99  52.22  55.03  57.50  59.71  61.69  63.47  65.09  66.56  67.89  69.11  70.21  71.21  72.11  72.91  73.63  74.25  74.79  75.24  75.60  75.88  76.06  76.16  76.15  76.06  75.86  75.56  75.17  74.66  74.05  73.33  72.49  71.55  70.50  69.33  68.06  66.68  65.20  63.62  61.94  60.18  58.34  56.43  54.46  52.45  50.39  48.31  46.23  44.15  42.08  40.06  38.08  36.17  34.34  32.61  30.98  29.48  28.11  26.89  25.82  24.91  24.16  23.59  23.18  22.95  22.89  22.98  23.23  23.63  24.16  24.81  25.57  26.42  27.34  28.31  29.31  30.31  31.30  32.25  33.13  33.91  34.57  35.06  35.36  35.42  35.18  34.59  33.56  31.97  29.66  26.33  21.47  13.91   0.00
  0.00  17.79  28.14  35.42  41.02  45.56  49.35  52.60  55.43  57.92  60.14  62.14  63.94  65.56  67.04  68.39  69.61  70.72  71.73  72.64  73.45  74.17  74.81  75.35  75.81  76.18  76.45  76.64  76.74  76.74  76.65  76.46  76.17  75.77  75.27  74.66  73.95  73.12  72.18  71.13  69.97  68.70  67.32  65.84  64.26  62.59  60.83  59.00  57.09  55.12  53.11  51.06  48.98  46.90  44.82  42.76  40.73  38.76  36.85  35.02  33.28  31.66  30.16  28.79  27.56  26.49  25.58  24.83  24.25  23.85  23.61  23.54  23.63  23.88  24.27  24.79  25.44  26.19  27.03  27.93  28.89  29.88  30.88  31.86  32.79  33.66  34.43  35.07  35.55  35.83  35.86  35.61  34.99  33.94  32.32  29.97  26.60  21.68  14.04   0.00
  0.00  17.91  28.33  35.66  41.30  45.86  49.68  52.95  55.80  58.31  60.55  62.56  64.37  66.01  67.50  68.85  70.09  71.21  72.22  73.14  73.96  74.68  75.32  75.87  76.33  76.71  76.99  77.19  77.29  77.30  77.21  77.02  76.73  76.34  75.84  75.24  74.52  73.70  72.76  71.72  70.56  69.29  67.92  66.45  64.87  63.20  61.45  59.62  57.71  55.75  53.74  51.69  49.62  47.53  45.46  43.40  41.38  39.40  37.49  35.67  33.93  32.31  30.81  29.44  28.21  27.14  26.22  25.47  24.89  24.48  24.24  24.17  24.25  24.49  24.88  25.40  26.03  26.78  27.61  28.51  29.46  30.44  31.42  32.39  33.31  34.16  34.92  35.54  36.01  36.27  36.29  36.01  35.37  34.29  32.65  30.26  26.85  21.88  14.17   0.00
  0.00  18.02  28.50  35.88  41.55  46.15  49.99  53.28  56.15  58.67  60.92  62.94  64.77  66.42  67.92  69.28  70.52  71.65  72.67  73.59  74.42  75.15  75.80  76.35  76.82  77.20  77.49  77.69  77.79  77.81  77.72  77.54  77.25  76.87  76.37  75.77  75.06  74.24  73.31  72.27  71.11  69.85  68.48  67.01  65.44  63.78  62.03  60.20  58.30  56.34  54.33  52.28  50.22  48.14  46.06  44.01  41.99  40.02  38.11  36.28  34.55  32.93  31.43  30.06  28.83  27.75  26.84  26.09  25.51  25.09  24.85  24.77  24.85  25.08  25.46  25.97  26.60  27.34  28.16  29.05  29.99  30.96  31.94  32.89  33.80  34.64  35.38  35.99  36.44  36.69  36.69  36.39  35.73  34.63  32.95  30.54  27.08  22.06  14.28   0.00
  0.00  18.13  28.66  36.08  41.79  46.41  50.27  53.58  56.46  59.00  61.27  63.30  65.13  66.79  68.30  69.67  70.92  72.05  73.08  74.01  74.84  75.58  76.23  76.79  77.27  77.65  77.94  78.15  78.26  78.27  78.19  78.01  77.73  77.35  76.86  76.27  75.56  74.74  73.82  72.78  71.63  70.37  69.00  67.54  65.97  64.31  62.56  60.74  58.84  56.89  54.88  52.84  50.78  48.70  46.63  44.58  42.56  40.59  38.69  36.87  35.14  33.52  32.01  30.64  29.42  28.34  27.43  26.68  26.09  25.67  25.43  25.34  25.42  25.65  26.02  26.53  27.15  27.88  28.69  29.57  30.50  31.46  32.42  33.37  34.27  35.09  35.82  36.42  36.85  37.08  37.06  36.75  36.07  34.94  33.24  30.79  27.30  22.23  14.39   0.00
  0.00  18.22  28.81  36.26  42.00  46.64  50.52  53.85  56.74  59.30  61.57  63.62  65.46  67.13  68.64  70.02  71.28  72.42  73.46  74.39  75.23  75.97  76.63  77.19  77.67  78.06  78.36  78.56  78.68  78.70  78.62  78.45  78.17  77.79  77.31  76.71  76.01  75.20  74.28  73.24  72.10  70.84  69.48  68.02  66.46  64.80  63.06  61.24  59.35  57.40  55.40  53.36  51.30  49.23  47.17  45.12  43.10  41.14  39.24  37.42  35.69  34.07  32.57  31.20  29.98  28.90  27.98  27.23  26.64  26.23  25.97  25.89  25.96  26.18  26.55  27.05  27.66  28.38  29.19  30.06  30.98  31.93  32.88  33.82  34.70  35.52  36.23  36.81  37.23  37.44  37.41  37.08  36.38  35.23  33.50  31.03  27.51  22.39  14.49   0.00
  0.00  18.30  28.93  36.42  42.18  46.85  50.75  54.09  57.00  59.56  61.85  63.90  65.75  67.43  68.95  70.34  71.60  72.75  73.79  74.73  75.57  76.32  76.98  77.55  78.03  78.42  78.72  78.93  79.05  79.08  79.00  78.83  78.56  78.19  77.70  77.12  76.42  75.61  74.69  73.66  72.52  71.27  69.92  68.46  66.90  65.25  63.52  61.70  59.81  57.87  55.88  53.84  51.79  49.72  47.66  45.62  43.61  41.65  39.75  37.93  36.21  34.59  33.09  31.73  30.50  29.43  28.51  27.76  27.17  26.75  26.49  26.40  26.47  26.69  27.05  27.54  28.15  28.86  29.66  30.52  31.43  32.37  33.31  34.23  35.11  35.91  36.61  37.18  37.58  37.78  37.73  37.38  36.66  35.49  33.74  31.24  27.69  22.54  14.58   0.00
  0.00  18.37  29.04  36.56  42.35  47.03  50.94  54.30  57.22  59.79  62.09  64.15  66.00  67.69  69.22  70.61  71.88  73.03  74.08  75.02  75.87  76.62  77.28  77.86  78.34  78.74  79.04  79.26  79.38  79.41  79.34  79.17  78.91  78.53  78.06  77.47  76.78  75.98  75.06  74.04  72.90  71.66  70.31  68.85  67.30  65.66  63.93  62.12  60.24  58.30  56.31  54.29  52.24  50.18  48.12  46.08  44.08  42.12  40.23  38.42  36.69  35.08  33.58  32.22  31.00  29.92  29.00  28.25  27.66  27.24  26.98  26.88  26.95  27.16  27.52  28.00  28.60  29.31  30.10  30.95  31.85  32.78  33.71  34.62  35.49  36.28  36.96  37.52  37.91  38.09  38.03  37.66  36.92  35.73  33.96  31.44  27.85  22.67  14.66   0.00
  0.00  18.43  29.14  36.68  42.48  47.18  51.11  54.47  57.40  59.99  62.29  64.36  66.22  67.91  69.44  70.84  72.11  73.27  74.32  75.27  76.12  76.88  77.54  78.12  78.61  79.01  79.32  79.54  79.66  79.69  79.63  79.47  79.20  78.83  78.36  77.78  77.09  76.29  75.38  74.36  73.23  71.99  70.65  69.20  67.66  66.02  64.29  62.49  60.62  58.69  56.70  54.68  52.64  50.59  48.54  46.51  44.51  42.56  40.67  38.86  37.14  35.53  34.04  32.68  31.45  30.38  29.46  28.71  28.12  27.69  27.43  27.34  27.39  27.60  27.95  28.43  29.03  29.72  30.50  31.35  32.24  33.16  34.08  34.98  35.83  36.61  37.29  37.83  38.20  38.37  38.29  37.91  37.15  35.95  34.16  31.61  28.00  22.78  14.73   0.00
  0.00  18.48  29.22  36.78  42.60  47.30  51.24  54.62  57.55  60.15  62.45  64.53  66.40  68.09  69.63  71.03  72.31  73.47  74.52  75.47  76.33  77.09  77.76  78.34  78.83  79.23  79.54  79.77  79.90  79.93  79.87  79.71  79.45  79.08  78.62  78.04  77.36  76.56  75.66  74.64  73.52  72.28  70.95  69.50  67.97  66.33  64.62  62.82  60.95  59.03  57.05  55.04  53.01  50.96  48.92  46.89  44.90  42.95  41.07  39.27  37.55  35.95  34.46  33.10  31.88  30.81  29.89  29.14  28.54  28.12  27.86  27.75  27.81  28.01  28.36  28.83  29.42  30.11  30.88  31.72  32.60  33.51  34.42  35.31  36.15  36.91  37.58  38.10  38.47  38.62  38.53  38.13  37.36  36.13  34.33  31.76  28.13  22.88  14.80   0.00
  0.00  18.51  29.27  36.85  42.68  47.40  51.35  54.73  57.67  60.27  62.58  64.66  66.53  68.23  69.77  71.18  72.46  73.62  74.68  75.63  76.49  77.25  77.92  78.51  79.00  79.41  79.72  79.95  80.08  80.12  80.06  79.90  79.65  79.29  78.82  78.25  77.57  76.78  75.88  74.87  73.75  72.53  71.19  69.76  68.23  66.60  64.89  63.10  61.24  59.33  57.36  55.36  53.33  51.29  49.25  47.23  45.25  43.31  41.43  39.64  37.93  36.33  34.84  33.49  32.27  31.20  30.28  29.53  28.94  28.51  28.24  28.14  28.19  28.39  28.73  29.20  29.78  30.46  31.22  32.05  32.93  33.82  34.72  35.60  36.43  37.18  37.83  38.35  38.70  38.84  38.73  38.32  37.54  36.30  34.48  31.89  28.24  22.97  14.85   0.00
  0.00  18.54  29.32  36.90  42.74  47.47  51.42  54.80  57.75  60.35  62.67  64.75  66.63  68.33  69.87  71.28  72.56  73.73  74.79  75.74  76.60  77.37  78.04  78.63  79.12  79.53  79.85  80.08  80.21  80.25  80.20  80.05  79.79  79.44  78.98  78.41  77.73  76.95  76.06  75.05  73.94  72.72  71.39  69.97  68.44  66.82  65.12  63.34  61.49  59.58  57.62  55.62  53.60  51.57  49.55  47.54  45.56  43.63  41.76  39.97  38.26  36.67  35.19  33.84  32.62  31.55  30.64  29.89  29.30  28.87  28.60  28.49  28.54  28.74  29.07  29.53  30.10  30.78  31.53  32.35  33.22  34.11  34.99  35.86  36.68  37.42  38.06  38.56  38.90  39.03  38.91  38.48  37.69  36.43  34.60  31.99  28.33  23.03  14.89   0.00
  0.00  18.55  29.34  36.93  42.77  47.50  51.46  54.85  57.80  60.40  62.72  64.80  66.68  68.38  69.93  71.34  72.62  73.79  74.85  75.80  76.67  77.43  78.11  78.70  79.20  79.61  79.93  80.15  80.29  80.34  80.28  80.14  79.89  79.53  79.08  78.52  77.85  77.07  76.18  75.18  74.07  72.86  71.54  70.12  68.60  66.99  65.30  63.53  61.69  59.79  57.84  55.85  53.84  51.82  49.80  47.79  45.83  43.90  42.04  40.26  38.56  36.97  35.50  34.15  32.94  31.87  30.96  30.21  29.62  29.19  28.92  28.81  28.86  29.05  29.38  29.83  30.40  31.06  31.81  32.62  33.48  34.35  35.23  36.09  36.89  37.62  38.25  38.75  39.07  39.19  39.05  38.62  37.81  36.54  34.69  32.08  28.39  23.09  14.92   0.00
  0.00  18.56  29.34  36.94  42.78  47.51  51.47  54.85  57.80  60.41  62.73  64.81  66.69  68.39  69.94  71.35  72.63  73.80  74.86  75.82  76.68  77.45  78.13  78.72  79.22  79.63  79.95  80.18  80.32  80.37  80.32  80.17  79.93  79.58  79.13  78.57  77.90  77.13  76.25  75.26  74.16  72.95  71.64  70.23  68.72  67.12  65.43  63.67  61.84  59.94  58.00  56.03  54.03  52.01  50.00  48.01  46.05  44.14  42.28  40.51  38.82  37.24  35.77  34.42  33.22  32.16  31.25  30.50  29.91  29.48  29.21  29.10  29.14  29.32  29.65  30.10  30.66  31.31  32.05  32.86  33.70  34.57  35.44  36.28  37.08  37.80  38.41  38.89  39.21  39.31  39.17  38.72  37.90  36.62  34.76  32.14  28.44  23.12  14.94   0.00
  0.00  18.55  29.33  36.92  42.76  47.48  51.44  54.82  57.77  60.38  62.69  64.77  66.65  68.36  69.90  71.31  72.60  73.76  74.82  75.78  76.64  77.41  78.09  78.68  79.18  79.60  79.92  80.15  80.29  80.34  80.30  80.15  79.91  79.57  79.12  78.57  77.91  77.14  76.26  75.28  74.19  72.99  71.68  70.28  68.78  67.19  65.51  63.76  61.94  60.06  58.13  56.16  54.17  52.17  50.17  48.19  46.23  44.33  42.49  40.72  39.04  37.46  36.00  34.66  33.46  32.40  31.50  30.75  30.16  29.73  29.46  29.35  29.38  29.57  29.88  30.33  30.88  31.53  32.26  33.05  33.89  34.75  35.61  36.44  37.22  37.93  38.54  39.01  39.31  39.41  39.25  38.79  37.96  36.67  34.81  32.17  28.47  23.14  14.95   0.00
  0.00  18.52  29.29  36.87  42.71  47.43  51.38  54.76  57.70  60.30  62.62  64.70  66.57  68.27  69.82  71.23  72.51  73.68  74.74  75.69  76.56  77.33  78.00  78.59  79.10  79.51  79.83  80.07  80.21  80.26  80.22  80.08  79.84  79.50  79.06  78.51  77.86  77.10  76.23  75.25  74.16  72.97  71.68  70.28  68.79  67.21  65.54  63.80  61.99  60.12  58.20  56.24  54.26  52.27  50.29  48.31  46.37  44.48  42.65  40.89  39.22  37.65  36.19  34.86  33.67  32.61  31.71  30.96  30.38  29.95  29.67  29.56  29.59  29.77  30.09  30.52  31.07  31.71  32.43  33.22  34.04  34.89  35.74  36.56  37.34  38.03  38.63  39.09  39.38  39.47  39.30  38.83  37.99  36.70  34.82  32.18  28.47  23.14  14.95   0.00
  0.00  18.49  29.23  36.80  42.62  47.34  51.28  54.65  57.59  60.19  62.50  64.57  66.45  68.14  69.69  71.09  72.37  73.54  74.60  75.55  76.41  77.18  77.86  78.45  78.95  79.37  79.69  79.93  80.08  80.13  80.09  79.95  79.72  79.38  78.94  78.40  77.75  76.99  76.13  75.16  74.08  72.90  71.61  70.23  68.75  67.18  65.52  63.79  61.99  60.13  58.22  56.28  54.31  52.33  50.36  48.40  46.47  44.59  42.76  41.02  39.35  37.79  36.35  35.02  33.83  32.79  31.89  31.14  30.56  30.13  29.85  29.74  29.77  29.94  30.25  30.68  31.22  31.86  32.57  33.35  34.16  35.00  35.84  36.65  37.41  38.10  38.68  39.13  39.42  39.49  39.32  38.84  37.99  36.69  34.81  32.16  28.45  23.12  14.94   0.00
  0.00  18.44  29.16  36.71  42.51  47.21  51.14  54.51  57.44  60.03  62.34  64.41  66.27  67.97  69.51  70.91  72.18  73.35  74.40  75.36  76.22  76.99  77.66  78.25  78.75  79.17  79.49  79.73  79.88  79.94  79.90  79.76  79.53  79.20  78.77  78.23  77.58  76.83  75.98  75.02  73.95  72.77  71.49  70.12  68.65  67.09  65.44  63.72  61.94  60.09  58.20  56.27  54.31  52.35  50.39  48.44  46.52  44.65  42.84  41.10  39.45  37.90  36.46  35.14  33.96  32.92  32.03  31.28  30.70  30.27  30.00  29.88  29.91  30.08  30.38  30.81  31.34  31.97  32.67  33.44  34.25  35.07  35.90  36.70  37.45  38.13  38.70  39.14  39.42  39.48  39.30  38.82  37.96  36.66  34.77  32.12  28.41  23.09  14.91   0.00
  0.00  18.38  29.06  36.58  42.37  47.05  50.97  54.33  57.25  59.83  62.13  64.19  66.05  67.74  69.27  70.67  71.94  73.10  74.16  75.11  75.97  76.73  77.41  77.99  78.50  78.91  79.24  79.48  79.62  79.68  79.65  79.51  79.29  78.96  78.53  78.00  77.36  76.62  75.77  74.81  73.75  72.59  71.32  69.95  68.49  66.95  65.31  63.61  61.83  60.00  58.12  56.20  54.26  52.31  50.36  48.43  46.53  44.67  42.87  41.14  39.50  37.96  36.53  35.23  34.05  33.01  32.13  31.39  30.81  30.38  30.11  29.99  30.01  30.18  30.48  30.90  31.42  32.04  32.74  33.50  34.29  35.11  35.93  36.72  37.46  38.13  38.69  39.12  39.38  39.44  39.25  38.76  37.90  36.59  34.70  32.05  28.35  23.03  14.87   0.00
  0.00  18.30  28.94  36.43  42.19  46.86  50.76  54.10  57.01  59.58  61.87  63.92  65.78  67.46  68.99  70.38  71.65  72.80  73.85  74.80  75.65  76.42  77.09  77.68  78.18  78.59  78.92  79.16  79.31  79.37  79.33  79.20  78.98  78.66  78.23  77.70  77.07  76.34  75.50  74.55  73.50  72.34  71.09  69.73  68.28  66.75  65.13  63.44  61.68  59.86  57.99  56.09  54.17  52.23  50.29  48.38  46.49  44.64  42.86  41.14  39.51  37.98  36.57  35.27  34.10  33.07  32.19  31.45  30.87  30.45  30.18  30.05  30.08  30.24  30.54  30.95  31.47  32.08  32.77  33.52  34.30  35.11  35.92  36.70  37.43  38.08  38.63  39.05  39.31  39.36  39.16  38.66  37.80  36.49  34.60  31.96  28.26  22.96  14.83   0.00
  0.00  18.21  28.80  36.25  41.98  46.63  50.51  53.83  56.73  59.29  61.56  63.61  65.45  67.13  68.65  70.03  71.29  72.44  73.49  74.43  75.28  76.04  76.71  77.30  77.80  78.21  78.54  78.78  78.93  78.99  78.96  78.83  78.61  78.29  77.87  77.35  76.72  75.99  75.16  74.22  73.18  72.04  70.79  69.45  68.01  66.49  64.89  63.21  61.46  59.66  57.81  55.92  54.01  52.09  50.17  48.27  46.40  44.57  42.80  41.10  39.48  37.96  36.56  35.27  34.11  33.09  32.21  31.48  30.90  30.48  30.21  30.09  30.11  30.27  30.56  30.96  31.48  32.08  32.76  33.50  34.28  35.07  35.87  36.64  37.36  38.00  38.54  38.95  39.20  39.24  39.04  38.54  37.67  36.36  34.47  31.84  28.15  22.86  14.76   0.00
  0.00  18.10  28.63  36.04  41.74  46.36  50.22  53.52  56.40  58.94  61.21  63.24  65.08  66.74  68.25  69.63  70.88  72.03  73.06  74.00  74.85  75.61  76.27  76.86  77.35  77.76  78.09  78.33  78.48  78.54  78.51  78.39  78.17  77.86  77.44  76.93  76.31  75.59  74.76  73.83  72.80  71.67  70.43  69.10  67.68  66.17  64.58  62.92  61.19  59.40  57.57  55.70  53.81  51.91  50.01  48.12  46.26  44.45  42.69  41.01  39.41  37.90  36.50  35.23  34.08  33.06  32.19  31.47  30.90  30.47  30.20  30.08  30.10  30.26  30.54  30.94  31.45  32.04  32.71  33.44  34.21  34.99  35.78  36.54  37.25  37.88  38.41  38.81  39.05  39.09  38.88  38.37  37.51  36.19  34.31  31.68  28.01  22.75  14.69   0.00
  0.00  17.98  28.44  35.80  41.46  46.05  49.88  53.17  56.03  58.55  60.80  62.82  64.64  66.29  67.80  69.16  70.41  71.55  72.58  73.51  74.35  75.10  75.77  76.35  76.84  77.25  77.58  77.81  77.97  78.03  78.00  77.88  77.67  77.35  76.95  76.44  75.83  75.11  74.30  73.38  72.36  71.23  70.01  68.70  67.29  65.80  64.22  62.57  60.86  59.09  57.28  55.43  53.55  51.67  49.78  47.91  46.08  44.28  42.54  40.87  39.28  37.79  36.41  35.14  34.00  33.00  32.13  31.42  30.85  30.43  30.16  30.04  30.05  30.21  30.49  30.88  31.38  31.97  32.63  33.35  34.10  34.88  35.65  36.40  37.10  37.72  38.24  38.63  38.86  38.89  38.68  38.17  37.30  35.99  34.12  31.50  27.85  22.62  14.60   0.00
  0.00  17.85  28.22  35.53  41.15  45.69  49.50  52.76  55.60  58.10  60.34  62.34  64.15  65.79  67.28  68.64  69.87  71.00  72.03  72.95  73.79  74.53  75.19  75.77  76.26  76.67  76.99  77.23  77.38  77.44  77.42  77.30  77.09  76.78  76.38  75.88  75.27  74.57  73.76  72.85  71.84  70.73  69.52  68.22  66.83  65.35  63.79  62.16  60.47  58.72  56.92  55.09  53.24  51.37  49.51  47.66  45.84  44.06  42.34  40.68  39.11  37.64  36.27  35.01  33.89  32.89  32.03  31.32  30.76  30.34  30.07  29.95  29.97  30.12  30.39  30.78  31.27  31.85  32.50  33.21  33.96  34.72  35.48  36.22  36.90  37.52  38.03  38.41  38.63  38.66  38.44  37.93  37.06  35.76  33.89  31.29  27.66  22.46  14.50   0.00
  0.00  17.69  27.98  35.22  40.79  45.30  49.07  52.30  55.12  57.60  59.81  61.80  63.59  65.22  66.70  68.04  69.27  70.39  71.40  72.32  73.15  73.89  74.55  75.12  75.61  76.01  76.33  76.57  76.72  76.78  76.76  76.64  76.44  76.13  75.74  75.24  74.64  73.95  73.15  72.25  71.26  70.16  68.97  67.68  66.30  64.84  63.30  61.69  60.01  58.28  56.51  54.70  52.86  51.02  49.18  47.35  45.55  43.79  42.09  40.45  38.90  37.44  36.08  34.84  33.72  32.74  31.89  31.19  30.63  30.22  29.95  29.83  29.84  29.99  30.26  30.64  31.12  31.69  32.33  33.03  33.77  34.52  35.27  35.99  36.67  37.27  37.78  38.15  38.36  38.38  38.16  37.65  36.78  35.48  33.63  31.05  27.44  22.28  14.38   0.00
  0.00  17.52  27.70  34.88  40.39  44.86  48.59  51.79  54.58  57.04  59.23  61.20  62.97  64.58  66.05  67.38  68.60  69.70  70.71  71.62  72.44  73.18  73.82  74.39  74.87  75.28  75.59  75.83  75.98  76.05  76.02  75.91  75.71  75.41  75.02  74.53  73.94  73.25  72.46  71.58  70.59  69.51  68.33  67.06  65.70  64.26  62.74  61.15  59.49  57.78  56.03  54.24  52.43  50.61  48.79  46.98  45.20  43.46  41.78  40.17  38.63  37.19  35.85  34.62  33.52  32.54  31.71  31.01  30.46  30.05  29.78  29.66  29.67  29.82  30.08  30.46  30.93  31.49  32.13  32.81  33.54  34.28  35.01  35.73  36.39  36.98  37.48  37.84  38.05  38.06  37.83  37.32  36.46  35.17  33.33  30.77  27.19  22.08  14.25   0.00
  0.00  17.33  27.40  34.50  39.95  44.37  48.06  51.23  53.98  56.42  58.58  60.53  62.29  63.88  65.33  66.65  67.85  68.94  69.94  70.84  71.65  72.38  73.02  73.58  74.06  74.46  74.77  75.01  75.16  75.22  75.20  75.09  74.89  74.60  74.21  73.73  73.15  72.47  71.70  70.82  69.85  68.78  67.62  66.37  65.03  63.60  62.10  60.53  58.90  57.21  55.48  53.72  51.93  50.13  48.33  46.55  44.80  43.08  41.42  39.83  38.31  36.89  35.56  34.35  33.26  32.30  31.47  30.79  30.24  29.83  29.57  29.45  29.46  29.60  29.86  30.23  30.70  31.25  31.87  32.55  33.26  33.99  34.71  35.41  36.07  36.65  37.13  37.49  37.69  37.69  37.47  36.96  36.10  34.82  32.99  30.45  26.91  21.85  14.10   0.00
  0.00  17.12  27.07  34.07  39.46  43.83  47.48  50.60  53.32  55.73  57.87  59.79  61.52  63.10  64.53  65.83  67.02  68.10  69.09  69.98  70.78  71.50  72.13  72.68  73.16  73.55  73.86  74.10  74.24  74.31  74.29  74.18  73.99  73.70  73.32  72.84  72.27  71.61  70.84  69.98  69.02  67.97  66.83  65.59  64.27  62.87  61.39  59.84  58.23  56.57  54.86  53.12  51.36  49.59  47.82  46.06  44.33  42.64  41.00  39.43  37.94  36.53  35.23  34.03  32.96  32.01  31.19  30.52  29.98  29.58  29.32  29.19  29.20  29.34  29.59  29.96  30.42  30.96  31.57  32.23  32.93  33.65  34.36  35.05  35.69  36.26  36.73  37.08  37.27  37.28  37.05  36.54  35.69  34.42  32.61  30.10  26.60  21.59  13.94   0.00
  0.00  16.88  26.70  33.61  38.92  43.23  46.83  49.91  52.60  54.97  57.08  58.97  60.68  62.24  63.65  64.93  66.11  67.17  68.14  69.02  69.81  70.52  71.15  71.69  72.16  72.55  72.86  73.09  73.24  73.30  73.28  73.18  72.99  72.70  72.33  71.86  71.30  70.65  69.90  69.05  68.11  67.07  65.94  64.73  63.43  62.05  60.59  59.07  57.49  55.85  54.17  52.46  50.72  48.98  47.23  45.50  43.80  42.14  40.52  38.98  37.51  36.12  34.84  33.66  32.60  31.67  30.87  30.20  29.66  29.27  29.01  28.89  28.90  29.03  29.28  29.64  30.09  30.62  31.22  31.87  32.56  33.26  33.96  34.64  35.26  35.82  36.28  36.62  36.81  36.81  36.58  36.07  35.23  33.98  32.19  29.71  26.25  21.31  13.75   0.00
  0.00  16.62  26.29  33.09  38.33  42.57  46.11  49.15  51.79  54.13  56.21  58.07  59.76  61.29  62.68  63.94  65.10  66.15  67.10  67.97  68.75  69.45  70.06  70.60  71.06  71.45  71.75  71.98  72.12  72.19  72.17  72.07  71.88  71.60  71.24  70.78  70.23  69.59  68.85  68.02  67.09  66.07  64.97  63.77  62.49  61.14  59.71  58.21  56.65  55.04  53.39  51.71  50.01  48.29  46.58  44.88  43.20  41.57  39.98  38.46  37.01  35.65  34.39  33.23  32.19  31.27  30.48  29.82  29.30  28.91  28.66  28.54  28.55  28.68  28.92  29.27  29.71  30.23  30.82  31.46  32.13  32.82  33.51  34.17  34.78  35.33  35.78  36.11  36.29  36.28  36.06  35.55  34.72  33.48  31.72  29.27  25.86  21.00  13.55   0.00
  0.00  16.34  25.84  32.53  37.68  41.84  45.33  48.31  50.91  53.20  55.25  57.08  58.74  60.24  61.61  62.85  63.99  65.02  65.96  66.81  67.58  68.26  68.87  69.40  69.85  70.23  70.53  70.75  70.90  70.96  70.95  70.85  70.66  70.39  70.03  69.58  69.05  68.41  67.69  66.87  65.97  64.97  63.88  62.71  61.46  60.13  58.72  57.25  55.73  54.15  52.53  50.88  49.20  47.52  45.84  44.17  42.53  40.92  39.37  37.87  36.45  35.12  33.88  32.74  31.72  30.82  30.04  29.40  28.88  28.50  28.25  28.13  28.14  28.26  28.50  28.84  29.27  29.79  30.36  30.99  31.65  32.32  32.99  33.64  34.24  34.77  35.21  35.53  35.71  35.70  35.47  34.98  34.16  32.93  31.20  28.79  25.44  20.65  13.32   0.00
  0.00  16.03  25.35  31.91  36.96  41.04  44.46  47.39  49.94  52.19  54.19  55.99  57.62  59.09  60.43  61.65  62.76  63.78  64.70  65.53  66.29  66.96  67.56  68.08  68.52  68.89  69.19  69.41  69.55  69.61  69.60  69.50  69.32  69.06  68.71  68.27  67.74  67.12  66.41  65.61  64.72  63.75  62.68  61.54  60.31  59.01  57.63  56.19  54.70  53.15  51.57  49.95  48.31  46.66  45.02  43.38  41.77  40.20  38.68  37.21  35.82  34.52  33.30  32.19  31.19  30.30  29.54  28.91  28.40  28.03  27.78  27.67  27.67  27.79  28.03  28.36  28.78  29.28  29.84  30.45  31.10  31.76  32.41  33.04  33.63  34.15  34.58  34.89  35.06  35.05  34.82  34.33  33.53  32.32  30.62  28.25  24.96  20.26  13.07   0.00
  0.00  15.68  24.80  31.22  36.16  40.16  43.50  46.37  48.86  51.07  53.03  54.79  56.38  57.82  59.13  60.33  61.42  62.41  63.31  64.13  64.86  65.52  66.11  66.62  67.05  67.41  67.70  67.92  68.06  68.12  68.11  68.01  67.84  67.58  67.24  66.81  66.29  65.69  65.00  64.22  63.35  62.40  61.36  60.24  59.04  57.77  56.42  55.02  53.56  52.05  50.50  48.92  47.32  45.71  44.10  42.50  40.93  39.39  37.90  36.47  35.11  33.84  32.65  31.56  30.58  29.72  28.97  28.35  27.86  27.49  27.25  27.14  27.14  27.26  27.49  27.81  28.22  28.71  29.26  29.85  30.48  31.12  31.76  32.38  32.95  33.46  33.87  34.18  34.34  34.32  34.10  33.62  32.83  31.65  29.98  27.66  24.43  19.83  12.80   0.00
  0.00  15.30  24.20  30.47  35.29  39.19  42.45  45.24  47.68  49.83  51.74  53.46  55.01  56.42  57.70  58.87  59.93  60.90  61.78  62.57  63.29  63.94  64.51  65.00  65.43  65.78  66.07  66.28  66.41  66.48  66.46  66.37  66.20  65.95  65.62  65.20  64.70  64.11  63.44  62.68  61.83  60.90  59.89  58.80  57.63  56.39  55.08  53.71  52.29  50.82  49.31  47.77  46.21  44.64  43.07  41.51  39.98  38.48  37.03  35.64  34.32  33.07  31.91  30.85  29.90  29.06  28.33  27.73  27.24  26.89  26.65  26.54  26.54  26.66  26.88  27.19  27.59  28.07  28.60  29.18  29.79  30.41  31.03  31.63  32.19  32.68  33.08  33.38  33.53  33.52  33.30  32.82  32.05  30.90  29.26  27.00  23.85  19.36  12.49   0.00
  0.00  14.88  23.53  29.63  34.31  38.11  41.28  44.00  46.37  48.46  50.32  51.99  53.50  54.87  56.11  57.25  58.28  59.22  60.08  60.85  61.55  62.18  62.73  63.22  63.63  63.97  64.25  64.46  64.59  64.65  64.64  64.55  64.39  64.14  63.82  63.41  62.93  62.36  61.70  60.97  60.15  59.24  58.26  57.20  56.06  54.86  53.59  52.26  50.88  49.45  47.98  46.49  44.97  43.45  41.92  40.41  38.92  37.47  36.06  34.71  33.42  32.21  31.09  30.06  29.13  28.31  27.61  27.02  26.55  26.20  25.97  25.86  25.87  25.98  26.19  26.49  26.88  27.34  27.86  28.42  29.01  29.62  30.22  30.80  31.34  31.81  32.20  32.49  32.64  32.62  32.40  31.94  31.18  30.06  28.47  26.27  23.20  18.83  12.15   0.00
  0.00  14.41  22.79  28.70  33.23  36.91  39.98  42.62  44.91  46.93  48.74  50.35  51.82  53.14  54.35  55.45  56.45  57.36  58.19  58.94  59.62  60.22  60.76  61.23  61.63  61.96  62.23  62.43  62.56  62.62  62.61  62.52  62.37  62.13  61.82  61.43  60.96  60.40  59.77  59.06  58.27  57.39  56.44  55.42  54.32  53.15  51.92  50.64  49.30  47.92  46.50  45.05  43.59  42.11  40.64  39.18  37.74  36.33  34.96  33.66  32.41  31.24  30.15  29.16  28.26  27.47  26.78  26.22  25.76  25.43  25.20  25.10  25.10  25.21  25.41  25.71  26.08  26.52  27.02  27.56  28.14  28.72  29.30  29.86  30.38  30.84  31.22  31.49  31.63  31.61  31.40  30.95  30.22  29.13  27.59  25.45  22.48  18.24  11.77   0.00
  0.00  13.89  21.97  27.65  32.03  35.57  38.53  41.07  43.28  45.23  46.97  48.53  49.93  51.21  52.37  53.43  54.40  55.28  56.07  56.80  57.45  58.04  58.55  59.00  59.39  59.71  59.97  60.16  60.29  60.35  60.34  60.26  60.10  59.88  59.58  59.20  58.75  58.22  57.61  56.92  56.16  55.32  54.40  53.42  52.36  51.24  50.06  48.82  47.53  46.20  44.83  43.44  42.03  40.61  39.19  37.78  36.40  35.04  33.73  32.47  31.27  30.14  29.10  28.14  27.27  26.51  25.85  25.31  24.87  24.54  24.33  24.23  24.23  24.33  24.53  24.81  25.17  25.60  26.08  26.60  27.15  27.71  28.27  28.80  29.30  29.74  30.11  30.37  30.50  30.48  30.27  29.84  29.13  28.08  26.59  24.53  21.67  17.59  11.35   0.00
  0.00  13.30  21.03  26.48  30.67  34.06  36.89  39.32  41.44  43.31  44.97  46.46  47.81  49.04  50.15  51.16  52.09  52.93  53.69  54.39  55.01  55.57  56.07  56.50  56.87  57.18  57.43  57.61  57.73  57.79  57.78  57.70  57.55  57.34  57.05  56.69  56.26  55.75  55.17  54.51  53.78  52.98  52.10  51.16  50.15  49.08  47.95  46.76  45.53  44.26  42.95  41.62  40.27  38.91  37.55  36.21  34.88  33.58  32.33  31.12  29.98  28.90  27.90  26.98  26.15  25.42  24.79  24.27  23.85  23.54  23.33  23.23  23.24  23.33  23.52  23.79  24.13  24.54  25.00  25.50  26.02  26.56  27.09  27.61  28.08  28.50  28.85  29.10  29.22  29.20  29.00  28.59  27.91  26.90  25.47  23.50  20.76  16.84  10.87   0.00
  0.00  12.63  19.97  25.14  29.12  32.34  35.03  37.34  39.35  41.12  42.70  44.12  45.40  46.56  47.62  48.58  49.46  50.26  50.98  51.64  52.24  52.77  53.24  53.65  54.00  54.29  54.53  54.70  54.82  54.87  54.86  54.79  54.65  54.45  54.18  53.84  53.43  52.94  52.39  51.77  51.08  50.32  49.49  48.59  47.63  46.61  45.54  44.42  43.25  42.04  40.80  39.54  38.26  36.97  35.68  34.40  33.15  31.92  30.72  29.58  28.49  27.47  26.52  25.65  24.86  24.17  23.57  23.08  22.68  22.38  22.19  22.09  22.10  22.19  22.37  22.62  22.95  23.33  23.77  24.24  24.73  25.24  25.75  26.23  26.68  27.08  27.41  27.64  27.76  27.74  27.55  27.16  26.51  25.55  24.19  22.32  19.71  16.00  10.32   0.00
  0.00  11.86  18.75  23.60  27.34  30.36  32.89  35.05  36.94  38.60  40.09  41.42  42.62  43.71  44.70  45.61  46.43  47.18  47.86  48.48  49.04  49.54  49.98  50.37  50.70  50.97  51.19  51.36  51.47  51.52  51.51  51.44  51.31  51.12  50.86  50.55  50.16  49.71  49.19  48.61  47.96  47.24  46.46  45.62  44.73  43.77  42.76  41.71  40.61  39.48  38.32  37.13  35.93  34.72  33.52  32.32  31.14  29.98  28.87  27.79  26.77  25.81  24.92  24.11  23.37  22.72  22.16  21.69  21.32  21.04  20.86  20.77  20.77  20.86  21.02  21.26  21.57  21.93  22.33  22.78  23.24  23.72  24.19  24.65  25.07  25.44  25.75  25.97  26.08  26.06  25.88  25.50  24.89  23.99  22.72  20.96  18.51  15.02   9.69   0.00
  0.00  10.95  17.32  21.80  25.25  28.04  30.38  32.38  34.12  35.66  37.03  38.26  39.37  40.37  41.29  42.12  42.89  43.58  44.21  44.78  45.29  45.76  46.16  46.52  46.83  47.08  47.28  47.44  47.54  47.58  47.58  47.51  47.40  47.22  46.98  46.69  46.33  45.92  45.44  44.90  44.30  43.64  42.92  42.15  41.32  40.44  39.51  38.54  37.53  36.48  35.41  34.31  33.20  32.09  30.97  29.87  28.78  27.71  26.68  25.69  24.75  23.86  23.04  22.29  21.61  21.01  20.49  20.06  19.72  19.46  19.29  19.21  19.21  19.29  19.44  19.66  19.94  20.27  20.65  21.06  21.49  21.93  22.36  22.78  23.17  23.51  23.79  24.00  24.10  24.08  23.91  23.56  23.00  22.17  20.99  19.36  17.10  13.88   8.95   0.00
  0.00   9.87  15.60  19.64  22.75  25.26  27.37  29.17  30.74  32.12  33.36  34.47  35.47  36.37  37.20  37.95  38.64  39.26  39.83  40.34  40.81  41.22  41.59  41.91  42.19  42.42  42.60  42.74  42.83  42.87  42.87  42.81  42.70  42.54  42.33  42.07  41.75  41.37  40.94  40.46  39.92  39.33  38.68  37.98  37.23  36.44  35.60  34.73  33.82  32.88  31.91  30.93  29.93  28.92  27.92  26.92  25.94  24.99  24.06  23.16  22.32  21.52  20.78  20.10  19.49  18.95  18.48  18.09  17.78  17.55  17.40  17.32  17.32  17.40  17.53  17.73  17.98  18.28  18.62  18.99  19.37  19.77  20.16  20.54  20.89  21.20  21.45  21.63  21.72  21.70  21.55  21.24  20.73  19.98  18.92  17.45  15.41  12.50   8.07   0.00
  0.00   8.52  13.48  16.97  19.65  21.82  23.64  25.20  26.55  27.75  28.82  29.77  30.64  31.42  32.14  32.79  33.38  33.92  34.41  34.85  35.25  35.61  35.93  36.21  36.45  36.64  36.80  36.92  37.00  37.04  37.03  36.98  36.89  36.75  36.57  36.34  36.07  35.74  35.37  34.95  34.49  33.98  33.42  32.82  32.17  31.49  30.76  30.01  29.22  28.41  27.58  26.73  25.86  25.00  24.13  23.27  22.42  21.60  20.79  20.02  19.29  18.60  17.96  17.38  16.85  16.38  15.98  15.64  15.38  15.18  15.05  14.98  14.98  15.04  15.16  15.33  15.55  15.81  16.10  16.42  16.75  17.09  17.43  17.75  18.05  18.32  18.54  18.69  18.77  18.75  18.62  18.35  17.91  17.26  16.34  15.08  13.31  10.80   6.97   0.00
  0.00   6.77  10.71  13.48  15.62  17.34  18.79  20.03  21.10  22.05  22.90  23.66  24.35  24.97  25.54  26.06  26.53  26.96  27.35  27.70  28.02  28.30  28.56  28.78  28.97  29.12  29.25  29.34  29.41  29.44  29.43  29.39  29.32  29.21  29.07  28.88  28.67  28.41  28.11  27.78  27.41  27.01  26.56  26.08  25.57  25.03  24.45  23.85  23.23  22.58  21.92  21.25  20.56  19.87  19.19  18.50  17.83  17.17  16.54  15.92  15.34  14.80  14.29  13.82  13.40  13.03  12.71  12.44  12.23  12.07  11.97  11.92  11.92  11.97  12.06  12.19  12.37  12.57  12.80  13.05  13.32  13.59  13.86  14.12  14.35  14.57  14.74  14.86  14.92  14.91  14.80  14.59  14.24  13.72  12.99  11.98  10.58   8.59   5.54   0.00
  0.00   4.29   6.78   8.53   9.88  10.97  11.89  12.67  13.35  13.95  14.49  14.97  15.41  15.80  16.16  16.48  16.78  17.05  17.30  17.52  17.73  17.91  18.07  18.21  18.33  18.43  18.51  18.57  18.60  18.62  18.62  18.60  18.55  18.48  18.39  18.28  18.14  17.97  17.79  17.58  17.34  17.09  16.81  16.50  16.18  15.84  15.47  15.09  14.70  14.29  13.87  13.45  13.01  12.58  12.14  11.71  11.29  10.87  10.47  10.08   9.71   9.37   9.04   8.75   8.49   8.25   8.05   7.88   7.75   7.64   7.58   7.55   7.55   7.58   7.64   7.72   7.83   7.96   8.11   8.26   8.43   8.60   8.77   8.93   9.09   9.22   9.33   9.41   9.44   9.43   9.37   9.23   9.01   8.68   8.22   7.58   6.70   5.43   3.51   0.00
  0.00   0.00   0.00   0.00   0.00   0.00   0.00   0.00   0.00   0.00   0.00   0.00   0.00   0.00   0.00   0.00   0.00   0.00   0.00   0.00   0.00   0.00   0.00   0.00   0.00   0.00   0.00   0.00   0.00   0.00   0.00   0.00   0.00   0.00   0.00   0.00   0.00   0.00   0.00   0.00   0.00   0.00   0.00   0.00   0.00   0.00   0.00   0.00   0.00   0.00   0.00   0.00   0.00   0.00   0.00   0.00   0.00   0.00   0.00   0.00   0.00   0.00   0.00   0.00   0.00   0.00   0.00   0.00   0.00   0.00   0.00   0.00   0.00   0.00   0.00   0.00   0.00   0.00   0.00   0.00   0.00   0.00   0.00   0.00   0.00   0.00   0.00   0.00   0.00   0.00   0.00   0.00   0.00   0.00   0.00   0.00   0.00   0.00   0.00   0.00
