# Generated with dmote-topography, version 0.1.0-SNAPSHOT, settings {:precision 2, :x-c 1.0, :x-extent 100, :x-mu 70.0, :x-sigma 20.0, :y-c 2.0, :y-extent 100, :y-mu 15.0, :y-sigma 33.0, :z-extent 100, :z-min 0.0}.
  0.00   0.00   0.00   0.00   0.00   0.00   0.00   0.00   0.00   0.00   0.00   0.00   0.00   0.00   0.00   0.00   0.00   0.00   0.00   0.00   0.00   0.00   0.00   0.00   0.00   0.00   0.00   0.00   0.00   0.00   0.00   0.00   0.00   0.00   0.00   0.00   0.00   0.00   0.00   0.00   0.00   0.00   0.00   0.00   0.00   0.00   0.00   0.00   0.00   0.00   0.00   0.00   0.00   0.00   0.00   0.00   0.00   0.00   0.00   0.00   0.00   0.00   0.00   0.00   0.00   0.00   0.00   0.00   0.00   0.00   0.00   0.00   0.00   0.00   0.00   0.00   0.00   0.00   0.00   0.00   0.00   0.00   0.00   0.00   0.00   0.00   0.00   0.00   0.00   0.00   0.00   0.00   0.00   0.00   0.00   0.00   0.00   0.00   0.00   0.00
  0.00   2.18   3.45   4.35   5.03   5.58   6.05   6.44   6.78   7.08   7.34   7.58   7.79   7.98   8.14   8.29   8.43   8.54   8.65   8.73   8.81   8.87   8.91   8.95   8.97   8.97   8.97   8.95   8.91   8.86   8.80   8.72   8.63   8.53   8.41   8.27   8.12   7.96   7.78   7.59   7.38   7.16   6.93   6.69   6.44   6.18   5.90   5.63   5.34   5.06   4.77   4.48   4.18   3.90   3.61   3.33   3.06   2.80   2.55   2.32   2.09   1.89   1.70   1.53   1.38   1.25   1.15   1.06   1.00   0.96   0.94   0.95   0.97   1.02   1.09   1.17   1.27   1.39   1.52   1.67   1.82   1.98   2.14   2.30   2.47   2.62   2.77   2.91   3.04   3.14   3.22   3.27   3.28   3.24   3.14   2.96   2.66   2.20   1.45   0.00
  0.00   3.41   5.39   6.79   7.86   8.72   9.44  10.05  10.59  11.05  11.47  11.83  12.16  12.45  12.72  12.95  13.16  13.34  13.50  13.63  13.75  13.84  13.91  13.96  13.99  14.00  13.99  13.95  13.90  13.82  13.72  13.60  13.45  13.28  13.09  12.88  12.64  12.38  12.09  11.79  11.46  11.12  10.75  10.37   9.97   9.56   9.13   8.69   8.24   7.79   7.33   6.87   6.41   5.95   5.50   5.06   4.64   4.22   3.83   3.46   3.11   2.78   2.48   2.22   1.98   1.78   1.61   1.48   1.38   1.32   1.29   1.30   1.34   1.42   1.53   1.66   1.83   2.02   2.23   2.45   2.70   2.95   3.21   3.47   3.73   3.99   4.23   4.45   4.65   4.82   4.95   5.03   5.05   5.00   4.85   4.58   4.13   3.41   2.24   0.00
  0.00   4.24   6.71   8.44   9.77  10.85  11.74  12.51  13.17  13.75  14.26  14.72  15.13  15.49  15.82  16.11  16.36  16.59  16.78  16.95  17.09  17.21  17.30  17.36  17.39  17.40  17.38  17.34  17.27  17.17  17.04  16.88  16.70  16.49  16.24  15.97  15.67  15.34  14.99  14.60  14.19  13.75  13.29  12.81  12.31  11.79  11.25  10.69  10.13   9.56   8.98   8.40   7.82   7.25   6.68   6.13   5.59   5.07   4.58   4.11   3.67   3.26   2.89   2.55   2.25   2.00   1.79   1.62   1.50   1.43   1.39   1.41   1.46   1.56   1.70   1.87   2.08   2.32   2.59   2.87   3.18   3.51   3.84   4.17   4.50   4.83   5.13   5.42   5.68   5.89   6.06   6.17   6.21   6.15   5.98   5.64   5.09   4.22   2.77   0.00
  0.00   4.86   7.68   9.67  11.19  12.42  13.45  14.33  15.08  15.75  16.34  16.86  17.32  17.74  18.11  18.44  18.74  18.99  19.22  19.41  19.57  19.70  19.80  19.87  19.91  19.91  19.89  19.84  19.75  19.64  19.49  19.30  19.09  18.84  18.56  18.24  17.89  17.51  17.10  16.65  16.17  15.67  15.14  14.58  13.99  13.39  12.76  12.12  11.47  10.81  10.14   9.47   8.80   8.13   7.48   6.84   6.21   5.61   5.04   4.49   3.98   3.51   3.08   2.69   2.35   2.06   1.82   1.62   1.49   1.40   1.36   1.38   1.45   1.56   1.72   1.93   2.17   2.45   2.76   3.10   3.46   3.84   4.22   4.61   5.00   5.38   5.74   6.08   6.38   6.64   6.85   6.98   7.03   6.97   6.78   6.41   5.79   4.80   3.16   0.00
  0.00   5.34   8.45  10.63  12.30  13.65  14.78  15.74  16.58  17.31  17.95  18.53  19.04  19.50  19.90  20.27  20.59  20.87  21.11  21.32  21.50  21.64  21.75  21.82  21.86  21.87  21.84  21.78  21.68  21.55  21.38  21.18  20.94  20.66  20.35  20.00  19.61  19.18  18.72  18.23  17.70  17.13  16.54  15.92  15.27  14.60  13.90  13.19  12.47  11.73  10.99  10.24   9.50   8.76   8.03   7.32   6.63   5.96   5.33   4.72   4.16   3.63   3.16   2.73   2.35   2.02   1.75   1.54   1.39   1.29   1.26   1.28   1.35   1.48   1.66   1.89   2.17   2.48   2.83   3.21   3.61   4.03   4.46   4.90   5.34   5.76   6.17   6.55   6.89   7.19   7.42   7.58   7.64   7.59   7.39   6.99   6.32   5.24   3.45   0.00
  0.00   5.73   9.06  11.40  13.20  14.65  15.86  16.89  17.79  18.57  19.26  19.88  20.43  20.92  21.35  21.74  22.09  22.39  22.65  22.87  23.06  23.21  23.33  23.40  23.44  23.45  23.42  23.35  23.24  23.10  22.91  22.69  22.43  22.13  21.79  21.40  20.98  20.52  20.02  19.48  18.91  18.30  17.65  16.98  16.28  15.55  14.80  14.02  13.24  12.44  11.63  10.83  10.02   9.22   8.43   7.66   6.91   6.19   5.50   4.85   4.24   3.67   3.15   2.69   2.28   1.93   1.64   1.41   1.25   1.15   1.11   1.13   1.22   1.36   1.56   1.81   2.11   2.45   2.83   3.24   3.68   4.14   4.61   5.09   5.57   6.03   6.48   6.90   7.27   7.60   7.86   8.04   8.11   8.07   7.86   7.44   6.74   5.59   3.68   0.00
  0.00   6.06   9.58  12.05  13.95  15.48  16.76  17.85  18.80  19.62  20.36  21.00  21.58  22.10  22.56  22.97  23.33  23.65  23.93  24.17  24.36  24.52  24.64  24.72  24.76  24.76  24.73  24.65  24.54  24.38  24.18  23.94  23.66  23.34  22.97  22.57  22.12  21.62  21.09  20.51  19.90  19.25  18.56  17.84  17.09  16.32  15.52  14.69  13.85  13.00  12.14  11.28  10.42   9.57   8.73   7.91   7.11   6.35   5.61   4.92   4.26   3.66   3.11   2.61   2.18   1.81   1.50   1.26   1.08   0.98   0.94   0.96   1.06   1.21   1.42   1.69   2.01   2.38   2.79   3.23   3.70   4.19   4.70   5.22   5.73   6.23   6.71   7.16   7.56   7.92   8.20   8.40   8.49   8.45   8.24   7.81   7.07   5.87   3.87   0.00
  0.00   6.34  10.02  12.60  14.59  16.19  17.53  18.67  19.66  20.52  21.29  21.97  22.57  23.11  23.59  24.02  24.40  24.73  25.02  25.26  25.47  25.63  25.75  25.84  25.88  25.88  25.84  25.76  25.64  25.47  25.26  25.01  24.71  24.37  23.98  23.55  23.07  22.55  21.99  21.38  20.74  20.05  19.33  18.57  17.78  16.96  16.11  15.25  14.36  13.46  12.56  11.65  10.74   9.85   8.96   8.10   7.26   6.45   5.67   4.94   4.25   3.62   3.04   2.52   2.06   1.67   1.35   1.09   0.91   0.80   0.76   0.79   0.89   1.05   1.28   1.56   1.90   2.29   2.72   3.19   3.69   4.22   4.75   5.30   5.84   6.37   6.89   7.36   7.80   8.17   8.48   8.70   8.80   8.77   8.56   8.12   7.36   6.11   4.03   0.00
  0.00   6.58  10.40  13.08  15.15  16.81  18.20  19.38  20.41  21.30  22.10  22.80  23.43  23.99  24.49  24.93  25.33  25.67  25.97  26.22  26.43  26.60  26.73  26.81  26.85  26.85  26.81  26.72  26.59  26.42  26.20  25.93  25.62  25.26  24.86  24.41  23.91  23.36  22.77  22.14  21.46  20.74  19.98  19.19  18.36  17.51  16.62  15.72  14.79  13.85  12.91  11.96  11.01  10.07   9.15   8.24   7.37   6.52   5.71   4.95   4.23   3.57   2.96   2.42   1.94   1.53   1.19   0.93   0.74   0.63   0.58   0.62   0.72   0.89   1.13   1.43   1.79   2.20   2.65   3.15   3.67   4.22   4.79   5.36   5.93   6.49   7.03   7.53   7.99   8.39   8.72   8.95   9.07   9.04   8.83   8.38   7.60   6.32   4.17   0.00
  0.00   6.79  10.74  13.51  15.64  17.36  18.79  20.01  21.07  22.00  22.82  23.55  24.19  24.77  25.29  25.75  26.15  26.51  26.81  27.07  27.29  27.46  27.59  27.68  27.72  27.72  27.67  27.58  27.44  27.26  27.03  26.75  26.43  26.06  25.63  25.16  24.64  24.08  23.46  22.80  22.10  21.35  20.57  19.74  18.88  17.99  17.07  16.13  15.17  14.20  13.21  12.23  11.24  10.27   9.31   8.37   7.46   6.58   5.74   4.94   4.20   3.51   2.88   2.32   1.82   1.40   1.05   0.78   0.58   0.46   0.42   0.46   0.57   0.75   1.00   1.31   1.68   2.11   2.58   3.10   3.65   4.22   4.81   5.41   6.00   6.59   7.15   7.68   8.16   8.58   8.92   9.17   9.30   9.28   9.07   8.61   7.81   6.50   4.29   0.00
  0.00   6.99  11.05  13.90  16.09  17.86  19.33  20.59  21.68  22.63  23.47  24.22  24.89  25.48  26.01  26.48  26.90  27.26  27.58  27.84  28.07  28.24  28.37  28.46  28.50  28.50  28.45  28.36  28.21  28.02  27.78  27.50  27.16  26.77  26.34  25.85  25.31  24.73  24.09  23.41  22.68  21.91  21.09  20.24  19.35  18.43  17.48  16.51  15.52  14.51  13.49  12.47  11.46  10.45   9.46   8.49   7.54   6.64   5.77   4.95   4.18   3.47   2.82   2.24   1.72   1.29   0.93   0.65   0.44   0.32   0.28   0.32   0.43   0.62   0.88   1.20   1.59   2.03   2.53   3.06   3.63   4.22   4.83   5.45   6.07   6.68   7.26   7.81   8.31   8.75   9.11   9.37   9.51   9.50   9.29   8.83   8.01   6.66   4.40   0.00
  0.00   7.17  11.33  14.25  16.50  18.31  19.83  21.11  22.23  23.21  24.07  24.84  25.52  26.13  26.68  27.16  27.58  27.96  28.28  28.55  28.78  28.96  29.10  29.18  29.23  29.22  29.17  29.07  28.92  28.73  28.48  28.18  27.84  27.44  26.99  26.48  25.93  25.33  24.67  23.97  23.22  22.42  21.59  20.71  19.79  18.84  17.87  16.86  15.84  14.80  13.76  12.71  11.66  10.62   9.60   8.60   7.63   6.70   5.81   4.96   4.17   3.44   2.77   2.17   1.65   1.20   0.83   0.54   0.33   0.20   0.16   0.20   0.32   0.52   0.78   1.12   1.52   1.98   2.48   3.03   3.62   4.23   4.87   5.51   6.15   6.77   7.38   7.94   8.46   8.92   9.29   9.56   9.71   9.70   9.49   9.02   8.19   6.82   4.50   0.00
  0.00   7.33  11.59  14.59  16.89  18.74  20.29  21.61  22.75  23.75  24.64  25.42  26.12  26.74  27.30  27.79  28.23  28.61  28.94  29.22  29.45  29.64  29.77  29.86  29.90  29.90  29.85  29.74  29.59  29.39  29.14  28.83  28.47  28.06  27.60  27.08  26.52  25.90  25.22  24.50  23.73  22.92  22.06  21.15  20.21  19.24  18.24  17.21  16.16  15.09  14.02  12.94  11.87  10.81   9.76   8.73   7.74   6.78   5.86   4.99   4.18   3.43   2.75   2.13   1.59   1.13   0.75   0.46   0.24   0.12   0.07   0.12   0.24   0.44   0.71   1.06   1.47   1.94   2.46   3.03   3.63   4.26   4.91   5.57   6.23   6.87   7.50   8.08   8.61   9.08   9.47   9.75   9.90   9.90   9.69   9.21   8.37   6.96   4.60   0.00
  0.00   7.49  11.85  14.91  17.26  19.15  20.73  22.08  23.25  24.27  25.17  25.97  26.69  27.33  27.89  28.40  28.84  29.23  29.57  29.85  30.09  30.28  30.42  30.51  30.55  30.55  30.49  30.39  30.23  30.02  29.76  29.45  29.08  28.66  28.19  27.66  27.08  26.45  25.76  25.02  24.23  23.39  22.51  21.59  20.63  19.63  18.61  17.55  16.48  15.39  14.29  13.19  12.09  11.00   9.93   8.88   7.86   6.88   5.94   5.05   4.22   3.45   2.75   2.12   1.57   1.10   0.71   0.41   0.19   0.06   0.02   0.06   0.19   0.39   0.68   1.03   1.45   1.93   2.47   3.05   3.66   4.31   4.98   5.65   6.33   6.99   7.63   8.22   8.77   9.25   9.65   9.94  10.10  10.10   9.88   9.40   8.54   7.11   4.70   0.00
  0.00   7.65  12.09  15.21  17.61  19.55  21.16  22.53  23.72  24.77  25.69  26.51  27.24  27.89  28.47  28.98  29.43  29.83  30.18  30.47  30.71  30.90  31.04  31.14  31.18  31.17  31.12  31.01  30.85  30.64  30.37  30.05  29.68  29.25  28.77  28.23  27.63  26.98  26.28  25.53  24.72  23.87  22.97  22.03  21.05  20.03  18.98  17.90  16.81  15.69  14.57  13.45  12.32  11.21  10.12   9.04   8.00   7.00   6.04   5.14   4.29   3.51   2.79   2.15   1.58   1.10   0.71   0.40   0.18   0.04   0.00   0.04   0.17   0.38   0.67   1.03   1.46   1.95   2.50   3.09   3.72   4.39   5.07   5.76   6.44   7.12   7.77   8.38   8.94   9.43   9.84  10.14  10.30  10.30  10.08   9.59   8.71   7.25   4.79   0.00
  0.00   7.80  12.33  15.51  17.96  19.93  21.58  22.98  24.19  25.26  26.20  27.03  27.77  28.44  29.03  29.55  30.02  30.42  30.77  31.07  31.32  31.51  31.66  31.75  31.80  31.79  31.73  31.62  31.46  31.24  30.97  30.65  30.27  29.83  29.34  28.79  28.18  27.52  26.81  26.04  25.22  24.35  23.43  22.47  21.47  20.43  19.36  18.27  17.15  16.01  14.87  13.72  12.58  11.45  10.33   9.24   8.18   7.16   6.18   5.26   4.39   3.59   2.86   2.21   1.64   1.14   0.74   0.43   0.20   0.06   0.02   0.06   0.19   0.41   0.70   1.07   1.51   2.01   2.57   3.17   3.81   4.49   5.18   5.88   6.58   7.27   7.94   8.56   9.13   9.63  10.04  10.34  10.51  10.51  10.29   9.78   8.89   7.40   4.89   0.00
  0.00   7.95  12.56  15.81  18.30  20.31  21.99  23.42  24.66  25.74  26.70  27.55  28.31  28.98  29.58  30.12  30.59  31.00  31.36  31.67  31.92  32.12  32.26  32.36  32.41  32.40  32.34  32.23  32.07  31.85  31.57  31.24  30.86  30.41  29.91  29.35  28.74  28.06  27.34  26.55  25.72  24.83  23.90  22.92  21.91  20.85  19.76  18.65  17.51  16.36  15.19  14.03  12.86  11.71  10.57   9.46   8.38   7.35   6.35   5.41   4.53   3.72   2.98   2.31   1.73   1.23   0.82   0.49   0.26   0.13   0.08   0.12   0.26   0.47   0.77   1.15   1.59   2.10   2.67   3.28   3.93   4.62   5.32   6.04   6.75   7.45   8.12   8.76   9.34   9.84  10.26  10.57  10.73  10.73  10.50   9.98   9.07   7.55   4.98   0.00
  0.00   8.10  12.80  16.11  18.64  20.69  22.40  23.86  25.12  26.22  27.20  28.06  28.84  29.53  30.14  30.68  31.17  31.59  31.95  32.26  32.52  32.72  32.87  32.97  33.02  33.02  32.96  32.85  32.68  32.46  32.18  31.84  31.45  31.00  30.49  29.92  29.30  28.62  27.88  27.08  26.24  25.34  24.39  23.40  22.36  21.29  20.19  19.05  17.90  16.73  15.54  14.36  13.18  12.00  10.85   9.72   8.63   7.57   6.56   5.61   4.71   3.88   3.13   2.45   1.86   1.35   0.93   0.61   0.37   0.23   0.18   0.23   0.36   0.58   0.88   1.26   1.72   2.23   2.80   3.43   4.09   4.78   5.50   6.22   6.94   7.65   8.34   8.98   9.56  10.08  10.50  10.80  10.97  10.96  10.72  10.19   9.26   7.70   5.09   0.00
  0.00   8.25  13.04  16.40  18.99  21.08  22.81  24.30  25.58  26.71  27.70  28.59  29.37  30.07  30.70  31.25  31.75  32.18  32.55  32.86  33.13  33.33  33.49  33.59  33.64  33.64  33.58  33.47  33.30  33.07  32.79  32.45  32.06  31.60  31.08  30.51  29.88  29.18  28.43  27.63  26.77  25.86  24.90  23.89  22.84  21.75  20.63  19.48  18.31  17.12  15.92  14.72  13.52  12.33  11.16  10.02   8.90   7.83   6.81   5.84   4.93   4.09   3.33   2.64   2.04   1.52   1.09   0.76   0.52   0.38   0.33   0.38   0.51   0.73   1.04   1.42   1.88   2.40   2.98   3.61   4.28   4.98   5.71   6.44   7.17   7.88   8.57   9.22   9.81  10.33  10.75  11.06  11.22  11.21  10.96  10.42   9.45   7.87   5.19   0.00
  0.00   8.40  13.28  16.71  19.34  21.46  23.24  24.75  26.05  27.20  28.21  29.11  29.91  30.63  31.27  31.83  32.33  32.77  33.15  33.47  33.74  33.96  34.12  34.22  34.27  34.27  34.21  34.10  33.93  33.71  33.42  33.08  32.68  32.22  31.69  31.11  30.47  29.77  29.01  28.20  27.33  26.40  25.43  24.41  23.35  22.25  21.11  19.94  18.76  17.55  16.34  15.12  13.90  12.70  11.51  10.35   9.22   8.13   7.10   6.11   5.19   4.34   3.57   2.87   2.26   1.73   1.30   0.96   0.72   0.57   0.52   0.57   0.70   0.93   1.23   1.62   2.08   2.61   3.20   3.83   4.51   5.22   5.95   6.69   7.42   8.15   8.84   9.49  10.09  10.61  11.03  11.34  11.50  11.47  11.21  10.65   9.66   8.04   5.30   0.00
  0.00   8.55  13.52  17.01  19.69  21.86  23.66  25.20  26.54  27.70  28.73  29.65  30.47  31.20  31.85  32.42  32.93  33.38  33.77  34.10  34.37  34.59  34.75  34.86  34.92  34.92  34.86  34.75  34.58  34.35  34.07  33.72  33.32  32.85  32.32  31.74  31.09  30.38  29.61  28.79  27.91  26.97  25.99  24.96  23.88  22.76  21.62  20.44  19.23  18.01  16.78  15.55  14.32  13.10  11.90  10.72   9.58   8.48   7.43   6.43   5.50   4.64   3.85   3.14   2.52   1.99   1.55   1.21   0.96   0.81   0.76   0.80   0.94   1.16   1.47   1.86   2.33   2.86   3.45   4.09   4.77   5.49   6.22   6.97   7.71   8.44   9.14   9.79  10.39  10.91  11.33  11.64  11.79  11.76  11.48  10.90   9.88   8.22   5.42   0.00
  0.00   8.71  13.77  17.33  20.06  22.26  24.10  25.67  27.03  28.22  29.27  30.20  31.03  31.78  32.44  33.03  33.55  34.00  34.40  34.74  35.02  35.24  35.41  35.52  35.58  35.58  35.53  35.42  35.25  35.02  34.73  34.39  33.98  33.51  32.97  32.38  31.73  31.01  30.24  29.40  28.51  27.57  26.57  25.53  24.44  23.32  22.15  20.96  19.75  18.51  17.27  16.02  14.77  13.54  12.32  11.13   9.98   8.86   7.80   6.79   5.85   4.98   4.18   3.46   2.83   2.30   1.85   1.50   1.25   1.10   1.04   1.08   1.22   1.45   1.76   2.15   2.62   3.15   3.75   4.39   5.08   5.80   6.54   7.29   8.03   8.76   9.47  10.12  10.72  11.24  11.66  11.96  12.10  12.06  11.77  11.16  10.12   8.41   5.54   0.00
  0.00   8.87  14.03  17.65  20.43  22.68  24.55  26.15  27.53  28.74  29.81  30.77  31.61  32.37  33.05  33.65  34.18  34.64  35.05  35.39  35.68  35.91  36.08  36.20  36.26  36.27  36.22  36.11  35.94  35.71  35.42  35.07  34.66  34.19  33.65  33.05  32.39  31.67  30.89  30.05  29.15  28.19  27.19  26.14  25.04  23.90  22.72  21.52  20.29  19.04  17.79  16.53  15.27  14.02  12.79  11.59  10.42   9.29   8.22   7.20   6.24   5.36   4.55   3.83   3.19   2.65   2.20   1.84   1.59   1.43   1.37   1.41   1.55   1.77   2.08   2.48   2.95   3.48   4.08   4.73   5.42   6.14   6.89   7.64   8.39   9.12   9.83  10.48  11.08  11.60  12.01  12.30  12.44  12.38  12.07  11.44  10.36   8.60   5.67   0.00
  0.00   9.04  14.29  17.98  20.82  23.10  25.01  26.64  28.05  29.28  30.37  31.34  32.21  32.98  33.67  34.28  34.83  35.30  35.72  36.07  36.36  36.60  36.78  36.90  36.97  36.98  36.93  36.82  36.65  36.42  36.13  35.78  35.37  34.89  34.35  33.75  33.08  32.36  31.57  30.72  29.81  28.85  27.84  26.77  25.66  24.52  23.33  22.11  20.87  19.62  18.35  17.07  15.80  14.54  13.30  12.08  10.90   9.77   8.68   7.65   6.68   5.79   4.97   4.24   3.60   3.04   2.59   2.23   1.97   1.81   1.75   1.79   1.92   2.14   2.46   2.85   3.32   3.86   4.46   5.11   5.80   6.53   7.27   8.03   8.78   9.51  10.22  10.87  11.47  11.98  12.39  12.67  12.79  12.72  12.39  11.74  10.62   8.81   5.81   0.00
  0.00   9.21  14.56  18.32  21.21  23.54  25.49  27.14  28.58  29.84  30.95  31.94  32.82  33.61  34.31  34.94  35.49  35.98  36.40  36.76  37.07  37.31  37.49  37.62  37.69  37.70  37.66  37.55  37.38  37.16  36.87  36.51  36.10  35.62  35.08  34.47  33.80  33.07  32.28  31.42  30.51  29.54  28.52  27.44  26.33  25.17  23.97  22.74  21.49  20.22  18.94  17.65  16.37  15.10  13.85  12.62  11.43  10.28   9.18   8.14   7.17   6.26   5.44   4.70   4.05   3.49   3.02   2.66   2.40   2.23   2.17   2.20   2.33   2.56   2.87   3.26   3.73   4.27   4.88   5.53   6.22   6.95   7.70   8.45   9.20   9.94  10.64  11.29  11.88  12.39  12.79  13.06  13.17  13.08  12.73  12.05  10.90   9.04   5.95   0.00
  0.00   9.39  14.84  18.67  21.61  23.99  25.97  27.66  29.13  30.41  31.55  32.55  33.45  34.26  34.97  35.61  36.18  36.68  37.11  37.48  37.79  38.04  38.23  38.36  38.44  38.46  38.41  38.31  38.14  37.92  37.63  37.28  36.86  36.38  35.83  35.22  34.55  33.81  33.01  32.15  31.23  30.26  29.23  28.15  27.02  25.85  24.65  23.41  22.15  20.87  19.57  18.28  16.98  15.70  14.44  13.20  12.00  10.84   9.73   8.68   7.69   6.78   5.95   5.20   4.54   3.98   3.51   3.14   2.87   2.70   2.63   2.67   2.79   3.02   3.33   3.72   4.19   4.73   5.33   5.99   6.68   7.41   8.15   8.91   9.66  10.39  11.09  11.74  12.33  12.82  13.22  13.48  13.57  13.47  13.09  12.38  11.18   9.27   6.10   0.00
  0.00   9.57  15.12  19.03  22.03  24.45  26.47  28.20  29.69  31.00  32.16  33.18  34.10  34.92  35.65  36.31  36.88  37.39  37.84  38.22  38.53  38.79  38.99  39.13  39.21  39.23  39.19  39.09  38.93  38.70  38.41  38.06  37.64  37.16  36.62  36.00  35.33  34.59  33.78  32.92  31.99  31.01  29.97  28.88  27.75  26.57  25.36  24.11  22.84  21.55  20.25  18.94  17.63  16.34  15.07  13.82  12.61  11.44  10.32   9.26   8.27   7.35   6.50   5.75   5.08   4.51   4.03   3.66   3.38   3.21   3.14   3.17   3.30   3.52   3.83   4.22   4.69   5.23   5.83   6.48   7.18   7.90   8.65   9.40  10.15  10.88  11.57  12.22  12.80  13.29  13.67  13.92  14.00  13.87  13.47  12.72  11.48   9.51   6.25   0.00
  0.00   9.75  15.42  19.40  22.46  24.93  26.99  28.75  30.27  31.60  32.78  33.83  34.77  35.61  36.35  37.02  37.61  38.13  38.58  38.97  39.30  39.57  39.77  39.92  40.00  40.03  39.99  39.89  39.73  39.51  39.22  38.87  38.46  37.97  37.43  36.81  36.13  35.39  34.58  33.71  32.78  31.79  30.74  29.65  28.51  27.32  26.10  24.85  23.57  22.27  20.95  19.64  18.32  17.02  15.73  14.48  13.26  12.08  10.95   9.88   8.88   7.95   7.10   6.34   5.66   5.08   4.60   4.22   3.94   3.77   3.69   3.72   3.84   4.06   4.37   4.76   5.23   5.76   6.36   7.01   7.71   8.43   9.18   9.93  10.67  11.40  12.09  12.73  13.30  13.78  14.15  14.38  14.44  14.29  13.87  13.08  11.80   9.76   6.41   0.00
  0.00   9.94  15.72  19.78  22.90  25.42  27.52  29.31  30.86  32.22  33.43  34.50  35.45  36.31  37.07  37.75  38.36  38.89  39.35  39.75  40.09  40.36  40.58  40.73  40.82  40.85  40.82  40.72  40.57  40.35  40.06  39.71  39.29  38.81  38.26  37.65  36.96  36.22  35.40  34.53  33.59  32.60  31.55  30.45  29.30  28.11  26.88  25.62  24.33  23.02  21.70  20.37  19.05  17.74  16.44  15.18  13.94  12.76  11.62  10.54   9.53   8.60   7.74   6.97   6.29   5.70   5.22   4.83   4.55   4.36   4.29   4.31   4.43   4.64   4.95   5.34   5.80   6.34   6.94   7.58   8.28   9.00   9.74  10.49  11.23  11.95  12.63  13.26  13.82  14.29  14.65  14.87  14.91  14.73  14.28  13.46  12.13  10.02   6.58   0.00
  0.00  10.14  16.03  20.17  23.35  25.92  28.06  29.89  31.47  32.86  34.09  35.18  36.16  37.03  37.81  38.50  39.12  39.67  40.14  40.55  40.90  41.18  41.40  41.56  41.66  41.69  41.67  41.58  41.42  41.21  40.92  40.57  40.16  39.67  39.12  38.51  37.82  37.07  36.26  35.38  34.44  33.44  32.39  31.28  30.12  28.93  27.69  26.42  25.12  23.81  22.48  21.14  19.81  18.49  17.19  15.91  14.67  13.47  12.33  11.24  10.23   9.28   8.42   7.64   6.95   6.36   5.87   5.48   5.19   5.00   4.92   4.94   5.05   5.27   5.57   5.95   6.42   6.95   7.54   8.19   8.88   9.60  10.33  11.08  11.81  12.53  13.20  13.83  14.38  14.84  15.18  15.38  15.40  15.20  14.71  13.85  12.47  10.30   6.75   0.00
  0.00  10.34  16.35  20.57  23.81  26.43  28.61  30.48  32.09  33.51  34.77  35.88  36.88  37.77  38.56  39.27  39.91  40.46  40.95  41.37  41.73  42.02  42.25  42.42  42.52  42.56  42.54  42.45  42.30  42.09  41.81  41.46  41.05  40.56  40.01  39.39  38.71  37.96  37.14  36.26  35.31  34.31  33.25  32.14  30.98  29.77  28.53  27.25  25.95  24.63  23.29  21.95  20.61  19.28  17.97  16.68  15.43  14.23  13.08  11.98  10.96  10.01   9.13   8.35   7.66   7.06   6.56   6.16   5.87   5.68   5.59   5.60   5.72   5.92   6.22   6.60   7.06   7.59   8.19   8.83   9.51  10.23  10.96  11.70  12.43  13.13  13.80  14.41  14.95  15.40  15.73  15.91  15.91  15.68  15.16  14.26  12.82  10.58   6.93   0.00
  0.00  10.54  16.67  20.98  24.28  26.95  29.18  31.08  32.73  34.18  35.46  36.60  37.61  38.52  39.34  40.06  40.71  41.28  41.78  42.21  42.58  42.88  43.12  43.29  43.40  43.45  43.43  43.35  43.21  42.99  42.72  42.37  41.96  41.47  40.92  40.31  39.62  38.87  38.05  37.16  36.22  35.21  34.15  33.03  31.86  30.65  29.40  28.12  26.81  25.48  24.13  22.78  21.44  20.10  18.78  17.49  16.23  15.02  13.86  12.76  11.73  10.77   9.89   9.10   8.40   7.79   7.29   6.88   6.58   6.39   6.30   6.31   6.42   6.62   6.91   7.29   7.75   8.27   8.86   9.50  10.18  10.89  11.61  12.35  13.07  13.77  14.43  15.03  15.56  15.99  16.30  16.46  16.43  16.17  15.62  14.68  13.19  10.87   7.12   0.00
  0.00  10.75  17.00  21.39  24.77  27.49  29.76  31.70  33.38  34.86  36.16  37.33  38.36  39.29  40.12  40.87  41.53  42.11  42.62  43.07  43.44  43.75  44.00  44.18  44.30  44.35  44.34  44.27  44.13  43.92  43.64  43.30  42.89  42.41  41.86  41.24  40.55  39.80  38.98  38.09  37.14  36.13  35.07  33.94  32.77  31.56  30.30  29.01  27.70  26.36  25.01  23.65  22.30  20.95  19.63  18.33  17.06  15.84  14.68  13.57  12.53  11.56  10.68   9.88   9.17   8.56   8.05   7.64   7.34   7.14   7.04   7.04   7.15   7.35   7.64   8.01   8.46   8.99   9.57  10.20  10.88  11.58  12.30  13.02  13.74  14.43  15.08  15.67  16.18  16.60  16.89  17.03  16.98  16.69  16.10  15.11  13.56  11.18   7.31   0.00
  0.00  10.97  17.34  21.82  25.26  28.03  30.35  32.33  34.05  35.55  36.88  38.07  39.13  40.08  40.93  41.69  42.36  42.96  43.49  43.94  44.33  44.65  44.90  45.09  45.22  45.28  45.28  45.21  45.07  44.86  44.59  44.25  43.84  43.36  42.82  42.20  41.51  40.76  39.93  39.04  38.09  37.08  36.01  34.88  33.71  32.49  31.23  29.93  28.61  27.27  25.91  24.55  23.19  21.84  20.50  19.20  17.93  16.70  15.52  14.41  13.36  12.39  11.50  10.69   9.98   9.36   8.85   8.43   8.12   7.92   7.82   7.82   7.91   8.11   8.39   8.76   9.21   9.73  10.30  10.93  11.60  12.30  13.01  13.73  14.43  15.11  15.75  16.33  16.83  17.23  17.50  17.61  17.54  17.22  16.59  15.56  13.95  11.49   7.51   0.00
  0.00  11.18  17.68  22.25  25.75  28.59  30.95  32.97  34.72  36.26  37.61  38.82  39.91  40.88  41.74  42.52  43.21  43.82  44.36  44.83  45.23  45.56  45.82  46.02  46.15  46.22  46.22  46.16  46.03  45.83  45.56  45.22  44.82  44.34  43.79  43.17  42.49  41.73  40.91  40.02  39.07  38.05  36.98  35.85  34.67  33.45  32.18  30.88  29.55  28.20  26.84  25.47  24.11  22.75  21.41  20.10  18.82  17.58  16.40  15.28  14.23  13.25  12.35  11.54  10.82  10.20   9.68   9.26   8.94   8.73   8.62   8.62   8.71   8.90   9.18   9.54   9.98  10.50  11.07  11.69  12.35  13.04  13.75  14.45  15.15  15.82  16.45  17.01  17.49  17.87  18.13  18.22  18.11  17.76  17.10  16.01  14.35  11.80   7.71   0.00
  0.00  11.40  18.02  22.68  26.26  29.15  31.56  33.62  35.40  36.97  38.36  39.59  40.70  41.69  42.57  43.37  44.07  44.70  45.25  45.73  46.14  46.48  46.76  46.96  47.10  47.18  47.19  47.13  47.00  46.81  46.54  46.21  45.81  45.33  44.79  44.17  43.48  42.73  41.90  41.01  40.06  39.04  37.96  36.83  35.65  34.42  33.15  31.85  30.52  29.16  27.80  26.42  25.05  23.68  22.34  21.02  19.74  18.50  17.31  16.18  15.12  14.13  13.23  12.41  11.69  11.06  10.53  10.11   9.78   9.57   9.46   9.44   9.53   9.72   9.99  10.35  10.79  11.29  11.86  12.47  13.13  13.81  14.51  15.20  15.89  16.55  17.16  17.71  18.18  18.54  18.77  18.84  18.71  18.32  17.61  16.48  14.76  12.13   7.92   0.00
  0.00  11.62  18.38  23.13  26.77  29.72  32.18  34.28  36.10  37.70  39.11  40.37  41.50  42.51  43.41  44.22  44.95  45.59  46.15  46.65  47.07  47.42  47.70  47.92  48.07  48.15  48.17  48.11  47.99  47.80  47.54  47.21  46.81  46.34  45.79  45.18  44.49  43.74  42.91  42.02  41.07  40.05  38.97  37.84  36.65  35.42  34.15  32.84  31.50  30.15  28.77  27.39  26.01  24.64  23.29  21.97  20.68  19.43  18.24  17.11  16.04  15.05  14.14  13.31  12.58  11.95  11.41  10.98  10.66  10.43  10.32  10.30  10.38  10.56  10.83  11.18  11.61  12.11  12.67  13.28  13.92  14.60  15.29  15.97  16.65  17.29  17.89  18.43  18.88  19.22  19.43  19.47  19.31  18.89  18.14  16.96  15.17  12.46   8.13   0.00
  0.00  11.85  18.73  23.57  27.29  30.29  32.80  34.94  36.80  38.43  39.87  41.16  42.30  43.34  44.26  45.09  45.83  46.49  47.06  47.57  48.00  48.36  48.66  48.88  49.04  49.13  49.15  49.11  48.99  48.81  48.55  48.23  47.83  47.36  46.82  46.20  45.52  44.77  43.94  43.05  42.09  41.07  39.99  38.86  37.67  36.44  35.16  33.85  32.51  31.15  29.77  28.38  27.00  25.63  24.27  22.94  21.64  20.39  19.19  18.05  16.98  15.98  15.07  14.24  13.50  12.86  12.32  11.88  11.55  11.32  11.20  11.18  11.25  11.43  11.69  12.04  12.46  12.95  13.50  14.10  14.74  15.41  16.08  16.76  17.43  18.06  18.64  19.16  19.59  19.92  20.10  20.12  19.93  19.47  18.68  17.45  15.59  12.79   8.34   0.00
  0.00  12.08  19.09  24.02  27.81  30.87  33.43  35.61  37.50  39.16  40.64  41.95  43.12  44.17  45.12  45.96  46.72  47.39  47.98  48.50  48.95  49.32  49.62  49.86  50.02  50.12  50.15  50.11  50.00  49.82  49.57  49.25  48.86  48.39  47.85  47.24  46.56  45.80  44.98  44.09  43.13  42.11  41.03  39.89  38.70  37.47  36.19  34.87  33.53  32.16  30.78  29.39  28.00  26.63  25.26  23.93  22.63  21.37  20.17  19.02  17.94  16.94  16.02  15.18  14.44  13.79  13.25  12.81  12.47  12.23  12.10  12.08  12.15  12.31  12.57  12.91  13.33  13.81  14.35  14.95  15.58  16.23  16.90  17.57  18.22  18.84  19.41  19.91  20.32  20.62  20.79  20.77  20.55  20.06  19.23  17.94  16.02  13.13   8.56   0.00
  0.00  12.30  19.45  24.48  28.34  31.46  34.06  36.29  38.21  39.91  41.41  42.74  43.94  45.01  45.98  46.84  47.61  48.30  48.91  49.44  49.90  50.28  50.59  50.84  51.01  51.12  51.16  51.12  51.02  50.85  50.60  50.28  49.89  49.43  48.89  48.29  47.60  46.85  46.03  45.14  44.18  43.16  42.08  40.94  39.75  38.51  37.23  35.91  34.56  33.19  31.81  30.42  29.02  27.64  26.27  24.93  23.63  22.37  21.16  20.01  18.92  17.91  16.99  16.15  15.40  14.75  14.20  13.75  13.40  13.16  13.03  12.99  13.06  13.22  13.47  13.80  14.21  14.69  15.22  15.81  16.43  17.07  17.73  18.39  19.02  19.63  20.18  20.67  21.06  21.34  21.48  21.44  21.18  20.66  19.78  18.44  16.45  13.48   8.78   0.00
  0.00  12.53  19.81  24.93  28.87  32.04  34.70  36.96  38.93  40.65  42.18  43.54  44.76  45.86  46.84  47.72  48.51  49.22  49.84  50.38  50.85  51.25  51.57  51.82  52.01  52.12  52.17  52.14  52.04  51.88  51.64  51.32  50.94  50.48  49.94  49.34  48.66  47.91  47.09  46.20  45.24  44.22  43.13  41.99  40.80  39.56  38.28  36.96  35.61  34.24  32.85  31.45  30.06  28.67  27.30  25.95  24.64  23.38  22.16  21.01  19.92  18.90  17.97  17.13  16.37  15.72  15.16  14.71  14.36  14.11  13.97  13.93  13.99  14.14  14.38  14.71  15.11  15.58  16.11  16.68  17.29  17.93  18.57  19.22  19.84  20.43  20.97  21.44  21.81  22.07  22.18  22.11  21.83  21.26  20.34  18.94  16.89  13.83   9.00   0.00
  0.00  12.76  20.17  25.39  29.40  32.63  35.33  37.64  39.64  41.40  42.96  44.35  45.59  46.71  47.71  48.61  49.42  50.13  50.77  51.33  51.81  52.21  52.55  52.81  53.01  53.13  53.18  53.16  53.07  52.91  52.67  52.36  51.98  51.53  51.00  50.39  49.72  48.97  48.15  47.26  46.30  45.28  44.20  43.06  41.86  40.62  39.34  38.02  36.66  35.29  33.90  32.50  31.10  29.71  28.33  26.99  25.67  24.40  23.18  22.02  20.93  19.91  18.97  18.12  17.36  16.70  16.14  15.68  15.32  15.07  14.92  14.88  14.93  15.07  15.31  15.63  16.02  16.48  17.00  17.57  18.17  18.79  19.43  20.06  20.67  21.24  21.77  22.21  22.57  22.80  22.89  22.79  22.47  21.87  20.90  19.45  17.33  14.18   9.22   0.00
  0.00  12.99  20.54  25.85  29.92  33.22  35.97  38.32  40.36  42.15  43.73  45.15  46.42  47.55  48.58  49.49  50.32  51.05  51.70  52.27  52.76  53.18  53.53  53.80  54.00  54.13  54.19  54.18  54.10  53.94  53.71  53.41  53.03  52.58  52.05  51.45  50.78  50.03  49.21  48.32  47.37  46.35  45.27  44.13  42.93  41.69  40.40  39.08  37.73  36.35  34.95  33.55  32.15  30.75  29.38  28.03  26.71  25.43  24.21  23.04  21.95  20.92  19.98  19.12  18.36  17.69  17.13  16.66  16.30  16.04  15.89  15.83  15.88  16.02  16.25  16.56  16.94  17.40  17.91  18.46  19.05  19.66  20.29  20.90  21.50  22.06  22.57  23.00  23.33  23.54  23.60  23.48  23.12  22.48  21.46  19.96  17.77  14.53   9.44   0.00
  0.00  13.22  20.90  26.30  30.45  33.80  36.60  38.99  41.07  42.89  44.51  45.95  47.24  48.40  49.44  50.38  51.22  51.96  52.63  53.21  53.72  54.15  54.50  54.79  55.00  55.14  55.21  55.20  55.12  54.97  54.75  54.45  54.08  53.63  53.11  52.51  51.84  51.09  50.28  49.39  48.44  47.42  46.33  45.19  44.00  42.76  41.47  40.14  38.79  37.41  36.01  34.61  33.20  31.81  30.43  29.07  27.75  26.47  25.24  24.07  22.97  21.94  21.00  20.14  19.37  18.69  18.12  17.65  17.28  17.02  16.86  16.80  16.84  16.97  17.19  17.50  17.87  18.32  18.82  19.36  19.94  20.54  21.15  21.76  22.34  22.88  23.37  23.78  24.10  24.28  24.32  24.16  23.77  23.09  22.03  20.47  18.21  14.88   9.66   0.00
  0.00  13.45  21.26  26.75  30.97  34.38  37.23  39.66  41.78  43.63  45.28  46.74  48.06  49.24  50.30  51.25  52.11  52.87  53.55  54.15  54.67  55.11  55.47  55.77  55.99  56.14  56.21  56.21  56.14  56.00  55.78  55.49  55.12  54.68  54.16  53.56  52.90  52.15  51.34  50.46  49.50  48.48  47.40  46.26  45.07  43.82  42.54  41.21  39.85  38.47  37.08  35.67  34.26  32.86  31.48  30.12  28.79  27.51  26.28  25.11  24.00  22.97  22.02  21.15  20.38  19.70  19.12  18.65  18.27  18.01  17.84  17.77  17.80  17.93  18.14  18.44  18.81  19.24  19.73  20.27  20.84  21.43  22.02  22.61  23.18  23.71  24.18  24.57  24.86  25.03  25.04  24.85  24.43  23.70  22.60  20.98  18.65  15.23   9.89   0.00
  0.00  13.67  21.61  27.20  31.49  34.96  37.86  40.33  42.48  44.37  46.04  47.53  48.87  50.07  51.15  52.12  53.00  53.78  54.47  55.08  55.61  56.06  56.44  56.74  56.97  57.13  57.21  57.22  57.16  57.02  56.81  56.52  56.16  55.72  55.20  54.61  53.95  53.21  52.40  51.51  50.56  49.55  48.46  47.33  46.13  44.89  43.60  42.27  40.92  39.53  38.14  36.73  35.32  33.92  32.53  31.17  29.84  28.56  27.32  26.14  25.03  24.00  23.04  22.17  21.39  20.71  20.13  19.65  19.27  18.99  18.82  18.75  18.77  18.89  19.10  19.38  19.74  20.17  20.65  21.18  21.73  22.31  22.90  23.47  24.02  24.54  24.99  25.36  25.63  25.77  25.75  25.54  25.08  24.32  23.16  21.49  19.09  15.58  10.11   0.00
  0.00  13.89  21.97  27.65  32.01  35.53  38.48  40.99  43.17  45.09  46.79  48.31  49.67  50.90  52.00  52.99  53.87  54.67  55.38  56.00  56.54  57.01  57.39  57.71  57.95  58.11  58.20  58.22  58.16  58.03  57.83  57.54  57.18  56.75  56.24  55.65  54.99  54.26  53.45  52.57  51.62  50.60  49.52  48.38  47.19  45.95  44.66  43.33  41.97  40.59  39.19  37.78  36.37  34.97  33.58  32.22  30.89  29.60  28.36  27.18  26.07  25.03  24.07  23.19  22.41  21.72  21.13  20.65  20.26  19.98  19.80  19.72  19.74  19.85  20.05  20.33  20.68  21.10  21.57  22.08  22.63  23.19  23.77  24.33  24.87  25.36  25.79  26.15  26.39  26.51  26.46  26.22  25.73  24.93  23.73  22.00  19.53  15.93  10.33   0.00
  0.00  14.11  22.31  28.08  32.52  36.10  39.09  41.64  43.86  45.81  47.54  49.08  50.47  51.71  52.83  53.84  54.74  55.55  56.27  56.91  57.46  57.94  58.34  58.66  58.91  59.08  59.18  59.21  59.16  59.03  58.83  58.55  58.20  57.77  57.27  56.68  56.02  55.29  54.49  53.61  52.66  51.65  50.57  49.43  48.24  47.00  45.71  44.38  43.02  41.64  40.24  38.83  37.42  36.01  34.62  33.26  31.93  30.63  29.39  28.21  27.09  26.05  25.09  24.21  23.42  22.73  22.14  21.65  21.26  20.97  20.78  20.70  20.71  20.81  21.00  21.27  21.62  22.02  22.48  22.99  23.52  24.07  24.63  25.18  25.70  26.18  26.60  26.93  27.15  27.25  27.17  26.90  26.37  25.53  24.28  22.50  19.97  16.27  10.55   0.00
  0.00  14.33  22.66  28.52  33.02  36.65  39.69  42.28  44.54  46.52  48.27  49.84  51.25  52.51  53.65  54.68  55.60  56.42  57.16  57.80  58.37  58.86  59.27  59.60  59.86  60.04  60.15  60.18  60.14  60.02  59.82  59.55  59.20  58.78  58.28  57.70  57.04  56.32  55.51  54.64  53.69  52.68  51.60  50.47  49.28  48.04  46.75  45.42  44.07  42.68  41.28  39.87  38.46  37.05  35.66  34.29  32.96  31.66  30.42  29.24  28.12  27.07  26.10  25.22  24.43  23.73  23.14  22.64  22.24  21.95  21.76  21.67  21.67  21.77  21.95  22.21  22.55  22.94  23.39  23.89  24.41  24.95  25.49  26.03  26.53  27.00  27.39  27.70  27.91  27.98  27.88  27.57  27.01  26.13  24.84  23.00  20.39  16.62  10.76   0.00
  0.00  14.54  22.99  28.94  33.51  37.20  40.28  42.91  45.20  47.21  49.00  50.59  52.02  53.30  54.46  55.50  56.44  57.28  58.02  58.68  59.26  59.76  60.18  60.52  60.79  60.98  61.09  61.13  61.10  60.99  60.80  60.53  60.19  59.77  59.27  58.70  58.05  57.32  56.52  55.65  54.71  53.70  52.62  51.49  50.30  49.06  47.78  46.45  45.09  43.71  42.31  40.90  39.48  38.08  36.68  35.32  33.98  32.69  31.44  30.25  29.13  28.08  27.11  26.23  25.43  24.73  24.13  23.63  23.22  22.93  22.73  22.63  22.63  22.72  22.89  23.14  23.47  23.86  24.30  24.78  25.29  25.82  26.35  26.87  27.36  27.80  28.18  28.47  28.65  28.70  28.57  28.23  27.64  26.72  25.38  23.49  20.82  16.95  10.98   0.00
  0.00  14.75  23.32  29.35  33.99  37.73  40.86  43.53  45.85  47.89  49.70  51.32  52.77  54.07  55.25  56.31  57.26  58.11  58.87  59.55  60.14  60.64  61.07  61.43  61.70  61.90  62.02  62.07  62.04  61.94  61.75  61.49  61.16  60.74  60.25  59.68  59.03  58.31  57.52  56.65  55.71  54.70  53.63  52.50  51.31  50.07  48.79  47.46  46.11  44.72  43.32  41.91  40.50  39.09  37.70  36.33  34.99  33.69  32.45  31.26  30.13  29.08  28.11  27.22  26.42  25.72  25.11  24.60  24.20  23.89  23.69  23.58  23.57  23.65  23.82  24.07  24.38  24.76  25.19  25.66  26.16  26.67  27.19  27.70  28.17  28.60  28.96  29.23  29.39  29.41  29.25  28.89  28.26  27.30  25.92  23.97  21.24  17.28  11.18   0.00
  0.00  14.96  23.65  29.76  34.46  38.25  41.42  44.13  46.49  48.56  50.39  52.03  53.50  54.82  56.02  57.09  58.06  58.93  59.70  60.39  60.99  61.51  61.95  62.31  62.59  62.80  62.93  62.99  62.96  62.86  62.69  62.43  62.10  61.69  61.21  60.64  60.00  59.28  58.49  57.62  56.69  55.68  54.61  53.48  52.30  51.06  49.78  48.46  47.10  45.72  44.32  42.91  41.49  40.09  38.69  37.32  35.99  34.69  33.44  32.25  31.12  30.07  29.09  28.20  27.40  26.69  26.08  25.57  25.16  24.85  24.64  24.52  24.51  24.58  24.74  24.98  25.28  25.65  26.07  26.53  27.02  27.52  28.02  28.51  28.97  29.38  29.72  29.98  30.11  30.11  29.93  29.53  28.87  27.87  26.45  24.45  21.64  17.61  11.39   0.00
  0.00  15.15  23.96  30.15  34.91  38.76  41.97  44.72  47.10  49.20  51.06  52.72  54.21  55.56  56.77  57.86  58.84  59.72  60.51  61.21  61.82  62.35  62.80  63.17  63.46  63.68  63.82  63.88  63.86  63.77  63.60  63.35  63.03  62.62  62.14  61.58  60.94  60.23  59.44  58.57  57.64  56.64  55.57  54.45  53.26  52.03  50.75  49.43  48.08  46.69  45.30  43.89  42.47  41.07  39.67  38.30  36.96  35.67  34.42  33.22  32.09  31.04  30.06  29.16  28.36  27.65  27.03  26.52  26.10  25.79  25.57  25.45  25.43  25.49  25.65  25.87  26.17  26.53  26.94  27.39  27.86  28.35  28.84  29.32  29.76  30.15  30.48  30.71  30.82  30.79  30.59  30.16  29.47  28.43  26.96  24.91  22.05  17.93  11.59   0.00
  0.00  15.35  24.26  30.54  35.36  39.25  42.51  45.29  47.70  49.83  51.71  53.40  54.91  56.27  57.49  58.60  59.60  60.49  61.29  62.00  62.62  63.16  63.62  64.00  64.30  64.53  64.67  64.74  64.73  64.65  64.48  64.24  63.92  63.52  63.04  62.49  61.85  61.14  60.36  59.50  58.57  57.57  56.51  55.39  54.21  52.98  51.70  50.38  49.03  47.65  46.25  44.84  43.43  42.02  40.63  39.26  37.92  36.62  35.37  34.18  33.05  31.99  31.01  30.11  29.30  28.59  27.97  27.45  27.03  26.71  26.49  26.36  26.33  26.39  26.53  26.75  27.04  27.39  27.79  28.23  28.69  29.17  29.64  30.10  30.53  30.91  31.21  31.42  31.52  31.46  31.23  30.78  30.05  28.98  27.47  25.36  22.44  18.24  11.79   0.00
  0.00  15.53  24.55  30.90  35.78  39.73  43.02  45.84  48.28  50.43  52.34  54.05  55.58  56.95  58.20  59.32  60.33  61.24  62.05  62.77  63.40  63.95  64.42  64.81  65.12  65.35  65.50  65.58  65.58  65.50  65.34  65.10  64.79  64.40  63.92  63.37  62.74  62.04  61.26  60.40  59.48  58.48  57.42  56.30  55.12  53.90  52.62  51.30  49.95  48.58  47.18  45.77  44.36  42.96  41.57  40.20  38.86  37.56  36.31  35.11  33.98  32.92  31.94  31.04  30.23  29.51  28.89  28.36  27.94  27.61  27.39  27.26  27.22  27.27  27.41  27.62  27.90  28.23  28.62  29.05  29.50  29.96  30.43  30.87  31.28  31.64  31.93  32.12  32.19  32.12  31.86  31.38  30.62  29.51  27.96  25.81  22.81  18.54  11.98   0.00
  0.00  15.71  24.84  31.26  36.19  40.18  43.52  46.36  48.84  51.01  52.95  54.67  56.22  57.62  58.87  60.01  61.03  61.95  62.78  63.51  64.15  64.71  65.19  65.59  65.90  66.14  66.30  66.39  66.39  66.32  66.17  65.94  65.63  65.24  64.77  64.22  63.60  62.90  62.12  61.27  60.35  59.36  58.30  57.19  56.01  54.79  53.51  52.20  50.85  49.48  48.09  46.68  45.27  43.87  42.48  41.11  39.77  38.47  37.22  36.02  34.89  33.83  32.85  31.95  31.13  30.41  29.78  29.26  28.83  28.50  28.26  28.13  28.09  28.13  28.26  28.46  28.73  29.06  29.44  29.85  30.29  30.74  31.19  31.62  32.02  32.36  32.63  32.80  32.85  32.75  32.47  31.96  31.17  30.03  28.43  26.23  23.18  18.83  12.16   0.00
  0.00  15.88  25.11  31.60  36.59  40.62  43.99  46.87  49.37  51.57  53.52  55.27  56.84  58.25  59.52  60.67  61.71  62.64  63.48  64.22  64.87  65.44  65.93  66.33  66.66  66.90  67.07  67.16  67.17  67.11  66.96  66.74  66.43  66.05  65.58  65.04  64.42  63.73  62.96  62.11  61.19  60.21  59.15  58.04  56.87  55.65  54.38  53.07  51.72  50.35  48.96  47.56  46.15  44.75  43.36  41.99  40.65  39.36  38.11  36.91  35.78  34.72  33.73  32.83  32.01  31.29  30.66  30.13  29.69  29.36  29.12  28.98  28.93  28.97  29.09  29.28  29.54  29.86  30.23  30.63  31.06  31.50  31.93  32.35  32.73  33.06  33.31  33.46  33.49  33.37  33.06  32.52  31.70  30.53  28.89  26.64  23.54  19.11  12.34   0.00
  0.00  16.04  25.36  31.92  36.96  41.04  44.44  47.35  49.88  52.10  54.08  55.84  57.43  58.85  60.14  61.30  62.35  63.30  64.14  64.89  65.56  66.14  66.63  67.04  67.38  67.63  67.81  67.90  67.92  67.86  67.72  67.50  67.20  66.82  66.36  65.83  65.21  64.52  63.75  62.91  62.00  61.02  59.97  58.86  57.69  56.48  55.21  53.90  52.56  51.19  49.81  48.40  47.00  45.60  44.21  42.85  41.51  40.21  38.96  37.77  36.64  35.57  34.59  33.68  32.86  32.14  31.51  30.97  30.53  30.19  29.95  29.80  29.75  29.78  29.89  30.08  30.33  30.64  31.00  31.39  31.80  32.23  32.65  33.06  33.42  33.73  33.96  34.10  34.11  33.96  33.63  33.07  32.22  31.01  29.33  27.04  23.88  19.38  12.51   0.00
  0.00  16.20  25.61  32.23  37.32  41.44  44.87  47.81  50.36  52.61  54.60  56.38  57.98  59.43  60.73  61.90  62.96  63.92  64.77  65.54  66.21  66.80  67.30  67.72  68.06  68.32  68.50  68.61  68.63  68.57  68.44  68.23  67.93  67.56  67.11  66.58  65.97  65.28  64.52  63.68  62.77  61.79  60.75  59.65  58.48  57.27  56.01  54.70  53.37  52.00  50.62  49.22  47.82  46.42  45.03  43.67  42.34  41.04  39.79  38.60  37.47  36.40  35.41  34.51  33.69  32.96  32.33  31.79  31.35  31.00  30.76  30.60  30.54  30.56  30.67  30.85  31.09  31.39  31.74  32.12  32.52  32.94  33.35  33.74  34.08  34.38  34.59  34.71  34.70  34.54  34.18  33.59  32.71  31.47  29.76  27.42  24.21  19.64  12.67   0.00
  0.00  16.34  25.84  32.52  37.66  41.81  45.28  48.24  50.82  53.08  55.10  56.89  58.51  59.97  61.28  62.47  63.54  64.51  65.37  66.14  66.82  67.42  67.93  68.36  68.70  68.97  69.16  69.27  69.30  69.25  69.12  68.91  68.63  68.26  67.81  67.29  66.68  66.00  65.24  64.41  63.51  62.53  61.49  60.39  59.24  58.03  56.77  55.47  54.14  52.77  51.39  50.00  48.60  47.21  45.82  44.46  43.13  41.84  40.59  39.39  38.26  37.20  36.21  35.31  34.49  33.76  33.12  32.58  32.13  31.78  31.53  31.37  31.31  31.32  31.42  31.59  31.82  32.12  32.45  32.82  33.22  33.62  34.01  34.39  34.72  35.00  35.20  35.30  35.27  35.08  34.70  34.09  33.18  31.91  30.16  27.78  24.52  19.88  12.82   0.00
  0.00  16.48  26.06  32.79  37.97  42.16  45.66  48.64  51.24  53.53  55.56  57.37  59.00  60.47  61.80  63.00  64.08  65.06  65.93  66.71  67.40  68.00  68.52  68.95  69.31  69.58  69.78  69.89  69.93  69.89  69.76  69.56  69.28  68.92  68.47  67.95  67.35  66.68  65.92  65.10  64.20  63.23  62.20  61.10  59.95  58.74  57.49  56.19  54.87  53.51  52.13  50.74  49.35  47.96  46.58  45.22  43.89  42.60  41.35  40.16  39.03  37.97  36.98  36.07  35.25  34.52  33.88  33.33  32.89  32.54  32.28  32.11  32.04  32.05  32.14  32.30  32.53  32.81  33.14  33.50  33.88  34.27  34.65  35.01  35.33  35.60  35.78  35.86  35.81  35.60  35.20  34.56  33.63  32.32  30.54  28.13  24.81  20.12  12.97   0.00
  0.00  16.61  26.26  33.05  38.26  42.48  46.01  49.02  51.64  53.94  55.99  57.82  59.46  60.94  62.28  63.49  64.58  65.57  66.45  67.24  67.93  68.54  69.07  69.51  69.87  70.15  70.35  70.47  70.52  70.48  70.36  70.16  69.89  69.53  69.09  68.58  67.98  67.31  66.56  65.74  64.85  63.89  62.86  61.77  60.62  59.42  58.17  56.88  55.56  54.20  52.83  51.45  50.05  48.67  47.29  45.94  44.61  43.32  42.08  40.89  39.76  38.70  37.71  36.80  35.98  35.25  34.61  34.06  33.61  33.25  32.99  32.82  32.74  32.75  32.83  32.99  33.20  33.48  33.79  34.14  34.52  34.89  35.26  35.61  35.92  36.16  36.33  36.39  36.32  36.10  35.68  35.01  34.05  32.72  30.90  28.45  25.09  20.34  13.11   0.00
  0.00  16.72  26.44  33.28  38.53  42.78  46.33  49.36  52.00  54.32  56.38  58.22  59.88  61.37  62.72  63.94  65.04  66.04  66.93  67.72  68.43  69.04  69.58  70.02  70.39  70.68  70.88  71.01  71.06  71.03  70.91  70.72  70.45  70.10  69.67  69.16  68.57  67.90  67.16  66.34  65.46  64.50  63.48  62.39  61.25  60.05  58.81  57.53  56.21  54.86  53.49  52.11  50.72  49.34  47.97  46.62  45.29  44.01  42.77  41.58  40.45  39.39  38.41  37.50  36.68  35.94  35.30  34.75  34.30  33.94  33.67  33.50  33.42  33.41  33.49  33.64  33.85  34.11  34.42  34.76  35.12  35.48  35.84  36.17  36.47  36.70  36.85  36.89  36.81  36.56  36.12  35.44  34.45  33.09  31.24  28.75  25.35  20.54  13.24   0.00
  0.00  16.83  26.61  33.49  38.78  43.05  46.62  49.68  52.33  54.67  56.74  58.60  60.26  61.77  63.13  64.35  65.46  66.46  67.36  68.17  68.88  69.50  70.04  70.49  70.86  71.16  71.37  71.50  71.55  71.53  71.42  71.23  70.97  70.62  70.20  69.69  69.11  68.45  67.71  66.90  66.02  65.07  64.05  62.97  61.83  60.64  59.40  58.13  56.81  55.47  54.11  52.73  51.35  49.97  48.60  47.26  45.94  44.66  43.42  42.23  41.11  40.05  39.06  38.16  37.34  36.60  35.96  35.41  34.95  34.59  34.32  34.14  34.05  34.04  34.11  34.25  34.46  34.71  35.01  35.34  35.69  36.04  36.39  36.71  36.98  37.20  37.34  37.37  37.26  37.00  36.54  35.83  34.82  33.43  31.56  29.03  25.59  20.73  13.36   0.00
  0.00  16.92  26.76  33.68  38.99  43.29  46.89  49.96  52.63  54.98  57.06  58.93  60.61  62.12  63.49  64.72  65.84  66.85  67.75  68.56  69.28  69.91  70.45  70.91  71.29  71.59  71.81  71.94  72.00  71.98  71.88  71.70  71.44  71.09  70.67  70.17  69.60  68.94  68.21  67.41  66.53  65.58  64.57  63.50  62.37  61.18  59.95  58.68  57.37  56.04  54.68  53.31  51.93  50.56  49.20  47.86  46.54  45.26  44.03  42.85  41.72  40.67  39.68  38.78  37.96  37.22  36.58  36.03  35.57  35.20  34.93  34.75  34.65  34.64  34.70  34.83  35.03  35.27  35.56  35.88  36.22  36.56  36.90  37.20  37.47  37.67  37.79  37.81  37.69  37.41  36.92  36.20  35.16  33.75  31.85  29.29  25.81  20.91  13.47   0.00
  0.00  17.01  26.89  33.84  39.19  43.51  47.12  50.20  52.89  55.25  57.35  59.22  60.91  62.43  63.80  65.05  66.17  67.19  68.10  68.91  69.64  70.27  70.82  71.28  71.67  71.97  72.19  72.34  72.40  72.38  72.29  72.11  71.85  71.52  71.10  70.61  70.04  69.39  68.66  67.86  66.99  66.05  65.05  63.98  62.86  61.68  60.45  59.19  57.89  56.56  55.20  53.84  52.47  51.10  49.75  48.41  47.10  45.83  44.60  43.42  42.30  41.24  40.26  39.36  38.54  37.80  37.16  36.61  36.15  35.78  35.50  35.32  35.22  35.20  35.25  35.38  35.56  35.80  36.08  36.39  36.72  37.05  37.37  37.67  37.92  38.11  38.21  38.21  38.08  37.78  37.28  36.53  35.48  34.04  32.12  29.53  26.01  21.06  13.57   0.00
  0.00  17.08  27.00  33.98  39.35  43.69  47.32  50.42  53.11  55.48  57.59  59.47  61.17  62.69  64.08  65.33  66.46  67.48  68.39  69.21  69.94  70.58  71.13  71.60  71.99  72.30  72.53  72.67  72.74  72.73  72.64  72.47  72.22  71.89  71.48  70.99  70.42  69.78  69.06  68.27  67.40  66.47  65.47  64.41  63.29  62.12  60.90  59.64  58.35  57.03  55.68  54.32  52.96  51.60  50.25  48.92  47.61  46.34  45.12  43.95  42.83  41.78  40.80  39.90  39.08  38.34  37.70  37.15  36.68  36.31  36.03  35.84  35.74  35.72  35.77  35.88  36.06  36.29  36.56  36.86  37.18  37.50  37.81  38.09  38.33  38.51  38.60  38.58  38.43  38.12  37.60  36.84  35.76  34.31  32.36  29.74  26.20  21.21  13.65   0.00
  0.00  17.14  27.09  34.10  39.49  43.84  47.48  50.59  53.30  55.68  57.79  59.68  61.38  62.92  64.30  65.56  66.69  67.72  68.64  69.46  70.20  70.84  71.40  71.87  72.27  72.58  72.81  72.96  73.03  73.03  72.94  72.77  72.53  72.20  71.80  71.31  70.75  70.12  69.40  68.62  67.76  66.83  65.84  64.79  63.68  62.51  61.30  60.05  58.76  57.45  56.11  54.76  53.40  52.05  50.71  49.38  48.08  46.82  45.60  44.43  43.32  42.27  41.29  40.39  39.58  38.84  38.20  37.64  37.18  36.81  36.53  36.33  36.22  36.19  36.24  36.35  36.52  36.74  37.01  37.30  37.60  37.91  38.21  38.48  38.71  38.87  38.95  38.92  38.76  38.42  37.89  37.11  36.02  34.54  32.57  29.93  26.35  21.33  13.73   0.00
  0.00  17.18  27.17  34.19  39.59  43.96  47.61  50.73  53.44  55.83  57.95  59.84  61.55  63.09  64.48  65.74  66.88  67.91  68.83  69.66  70.40  71.05  71.61  72.09  72.48  72.80  73.03  73.19  73.27  73.26  73.18  73.02  72.78  72.46  72.06  71.58  71.03  70.40  69.69  68.91  68.06  67.14  66.16  65.11  64.01  62.85  61.65  60.40  59.12  57.82  56.49  55.14  53.80  52.45  51.11  49.79  48.50  47.24  46.03  44.86  43.76  42.71  41.74  40.84  40.03  39.30  38.65  38.10  37.63  37.26  36.98  36.78  36.67  36.63  36.67  36.78  36.94  37.15  37.41  37.69  37.99  38.29  38.57  38.83  39.05  39.20  39.26  39.22  39.04  38.69  38.14  37.35  36.24  34.74  32.75  30.09  26.49  21.44  13.80   0.00
  0.00  17.22  27.22  34.26  39.67  44.04  47.70  50.83  53.54  55.93  58.06  59.96  61.67  63.21  64.61  65.87  67.01  68.05  68.97  69.81  70.55  71.20  71.76  72.24  72.64  72.96  73.20  73.36  73.44  73.44  73.37  73.21  72.97  72.66  72.27  71.79  71.25  70.62  69.92  69.15  68.30  67.39  66.41  65.38  64.28  63.13  61.94  60.70  59.43  58.13  56.81  55.48  54.14  52.80  51.47  50.16  48.87  47.62  46.41  45.25  44.15  43.11  42.14  41.25  40.44  39.71  39.06  38.51  38.04  37.67  37.38  37.18  37.07  37.03  37.06  37.16  37.32  37.52  37.77  38.04  38.33  38.62  38.89  39.14  39.35  39.48  39.54  39.48  39.29  38.93  38.36  37.55  36.43  34.92  32.91  30.23  26.60  21.52  13.85   0.00
  0.00  17.23  27.25  34.30  39.71  44.09  47.75  50.88  53.60  56.00  58.13  60.03  61.74  63.29  64.68  65.95  67.09  68.13  69.06  69.89  70.64  71.29  71.86  72.34  72.74  73.07  73.31  73.47  73.56  73.56  73.49  73.34  73.11  72.80  72.41  71.94  71.40  70.78  70.09  69.32  68.49  67.58  66.61  65.58  64.50  63.36  62.17  60.94  59.68  58.39  57.08  55.75  54.42  53.09  51.77  50.47  49.19  47.95  46.74  45.59  44.50  43.46  42.50  41.61  40.80  40.07  39.43  38.87  38.41  38.03  37.74  37.54  37.42  37.38  37.41  37.50  37.65  37.85  38.08  38.35  38.63  38.91  39.17  39.41  39.60  39.73  39.77  39.70  39.49  39.12  38.54  37.72  36.58  35.06  33.03  30.34  26.69  21.59  13.89   0.00
  0.00  17.24  27.26  34.31  39.72  44.11  47.77  50.90  53.62  56.01  58.14  60.05  61.76  63.31  64.71  65.97  67.12  68.15  69.09  69.92  70.67  71.32  71.89  72.38  72.78  73.11  73.36  73.52  73.61  73.62  73.55  73.40  73.18  72.87  72.49  72.03  71.50  70.88  70.20  69.44  68.61  67.71  66.75  65.73  64.65  63.52  62.35  61.13  59.87  58.59  57.29  55.97  54.65  53.33  52.02  50.72  49.45  48.22  47.02  45.88  44.79  43.76  42.80  41.92  41.11  40.38  39.74  39.19  38.73  38.35  38.06  37.85  37.73  37.68  37.71  37.79  37.94  38.13  38.36  38.61  38.88  39.15  39.41  39.64  39.82  39.93  39.96  39.88  39.66  39.28  38.69  37.85  36.70  35.16  33.12  30.41  26.76  21.64  13.92   0.00
  0.00  17.23  27.24  34.29  39.70  44.08  47.74  50.87  53.59  55.98  58.11  60.01  61.73  63.27  64.67  65.94  67.08  68.12  69.05  69.89  70.64  71.29  71.86  72.35  72.76  73.09  73.34  73.51  73.60  73.61  73.55  73.40  73.18  72.88  72.51  72.05  71.52  70.92  70.24  69.49  68.67  67.78  66.83  65.81  64.75  63.62  62.46  61.25  60.01  58.74  57.44  56.14  54.82  53.51  52.21  50.92  49.66  48.44  47.25  46.11  45.03  44.01  43.06  42.17  41.37  40.65  40.01  39.46  39.00  38.62  38.33  38.12  37.99  37.94  37.96  38.04  38.18  38.36  38.58  38.83  39.09  39.35  39.60  39.82  39.98  40.09  40.11  40.01  39.79  39.39  38.79  37.94  36.78  35.23  33.18  30.46  26.80  21.67  13.94   0.00
  0.00  17.20  27.20  34.23  39.64  44.01  47.67  50.79  53.51  55.90  58.03  59.93  61.64  63.18  64.58  65.84  66.99  68.03  68.96  69.80  70.54  71.20  71.77  72.26  72.67  73.00  73.25  73.42  73.52  73.53  73.47  73.34  73.12  72.83  72.45  72.01  71.48  70.89  70.21  69.47  68.66  67.78  66.84  65.83  64.77  63.66  62.51  61.31  60.08  58.82  57.54  56.24  54.94  53.64  52.34  51.07  49.82  48.60  47.42  46.29  45.22  44.20  43.26  42.38  41.58  40.86  40.23  39.68  39.22  38.84  38.55  38.34  38.21  38.15  38.17  38.24  38.37  38.55  38.76  39.00  39.25  39.51  39.74  39.95  40.11  40.20  40.21  40.11  39.87  39.46  38.85  37.99  36.82  35.27  33.21  30.48  26.81  21.67  13.94   0.00
  0.00  17.16  27.13  34.15  39.55  43.91  47.55  50.67  53.38  55.77  57.89  59.78  61.49  63.03  64.43  65.69  66.83  67.87  68.80  69.63  70.38  71.04  71.61  72.10  72.51  72.84  73.09  73.27  73.37  73.39  73.33  73.20  72.98  72.70  72.33  71.89  71.37  70.78  70.12  69.38  68.58  67.71  66.78  65.78  64.73  63.63  62.49  61.30  60.08  58.83  57.56  56.28  54.99  53.70  52.42  51.15  49.91  48.71  47.54  46.42  45.35  44.34  43.40  42.53  41.74  41.02  40.39  39.85  39.38  39.01  38.71  38.50  38.37  38.31  38.32  38.39  38.52  38.69  38.89  39.13  39.37  39.61  39.84  40.03  40.18  40.27  40.27  40.15  39.91  39.49  38.87  38.00  36.83  35.26  33.20  30.47  26.79  21.66  13.93   0.00
  0.00  17.10  27.04  34.03  39.41  43.76  47.39  50.50  53.20  55.58  57.69  59.58  61.28  62.82  64.21  65.47  66.61  67.64  68.57  69.40  70.15  70.80  71.38  71.87  72.28  72.61  72.87  73.04  73.14  73.17  73.11  72.98  72.78  72.49  72.13  71.70  71.19  70.61  69.95  69.22  68.43  67.57  66.65  65.66  64.62  63.54  62.40  61.23  60.02  58.78  57.53  56.25  54.98  53.70  52.43  51.18  49.95  48.75  47.59  46.48  45.42  44.42  43.49  42.63  41.84  41.13  40.50  39.96  39.50  39.12  38.83  38.62  38.48  38.42  38.43  38.49  38.61  38.78  38.97  39.20  39.43  39.67  39.88  40.07  40.21  40.29  40.27  40.15  39.90  39.47  38.85  37.97  36.79  35.22  33.15  30.42  26.75  21.62  13.90   0.00
  0.00  17.03  26.92  33.88  39.23  43.56  47.18  50.27  52.96  55.33  57.43  59.32  61.01  62.54  63.93  65.18  66.32  67.34  68.27  69.10  69.84  70.50  71.07  71.56  71.97  72.30  72.56  72.74  72.84  72.87  72.82  72.69  72.49  72.21  71.86  71.43  70.93  70.35  69.70  68.99  68.20  67.35  66.44  65.47  64.44  63.37  62.24  61.08  59.89  58.66  57.42  56.16  54.89  53.63  52.37  51.13  49.92  48.73  47.58  46.48  45.44  44.45  43.52  42.66  41.88  41.18  40.56  40.02  39.56  39.18  38.89  38.68  38.54  38.47  38.48  38.54  38.65  38.81  39.00  39.22  39.44  39.67  39.88  40.06  40.19  40.25  40.23  40.10  39.84  39.41  38.77  37.89  36.71  35.14  33.07  30.34  26.67  21.55  13.86   0.00
  0.00  16.93  26.77  33.69  39.02  43.32  46.92  49.99  52.67  55.02  57.11  58.99  60.67  62.20  63.57  64.82  65.95  66.97  67.90  68.72  69.46  70.11  70.68  71.17  71.58  71.92  72.17  72.35  72.46  72.49  72.44  72.32  72.12  71.85  71.50  71.08  70.59  70.02  69.38  68.67  67.90  67.06  66.16  65.20  64.18  63.12  62.01  60.86  59.68  58.47  57.24  56.00  54.74  53.49  52.25  51.02  49.82  48.65  47.51  46.42  45.39  44.41  43.49  42.64  41.87  41.17  40.55  40.01  39.56  39.19  38.89  38.68  38.54  38.47  38.47  38.53  38.64  38.79  38.97  39.18  39.40  39.62  39.82  39.99  40.11  40.17  40.14  40.00  39.73  39.29  38.65  37.77  36.58  35.01  32.94  30.22  26.56  21.46  13.80   0.00
  0.00  16.82  26.59  33.47  38.75  43.03  46.60  49.65  52.31  54.65  56.73  58.59  60.26  61.78  63.15  64.39  65.51  66.53  67.44  68.27  69.00  69.65  70.22  70.70  71.11  71.45  71.70  71.88  71.99  72.02  71.98  71.86  71.67  71.40  71.06  70.65  70.16  69.60  68.97  68.27  67.51  66.68  65.79  64.84  63.84  62.79  61.70  60.56  59.40  58.20  56.99  55.76  54.52  53.28  52.06  50.84  49.65  48.50  47.37  46.30  45.27  44.30  43.39  42.56  41.79  41.10  40.49  39.95  39.50  39.13  38.84  38.62  38.48  38.41  38.41  38.46  38.56  38.71  38.89  39.09  39.30  39.51  39.70  39.86  39.98  40.03  39.99  39.84  39.57  39.12  38.48  37.59  36.41  34.84  32.78  30.06  26.42  21.35  13.72   0.00
  0.00  16.68  26.37  33.20  38.44  42.68  46.22  49.26  51.89  54.21  56.27  58.12  59.78  61.28  62.64  63.87  64.99  65.99  66.90  67.72  68.45  69.10  69.66  70.15  70.55  70.89  71.14  71.32  71.43  71.46  71.42  71.31  71.12  70.86  70.53  70.12  69.64  69.09  68.47  67.78  67.03  66.21  65.34  64.40  63.42  62.38  61.30  60.18  59.03  57.85  56.65  55.44  54.22  53.00  51.79  50.59  49.42  48.27  47.16  46.10  45.09  44.13  43.23  42.40  41.65  40.96  40.36  39.83  39.38  39.01  38.72  38.51  38.37  38.29  38.29  38.33  38.43  38.57  38.74  38.94  39.14  39.34  39.52  39.68  39.78  39.83  39.78  39.63  39.35  38.90  38.26  37.37  36.18  34.62  32.57  29.87  26.25  21.20  13.63   0.00
  0.00  16.52  26.12  32.88  38.08  42.28  45.79  48.79  51.40  53.70  55.74  57.57  59.22  60.70  62.05  63.27  64.37  65.37  66.28  67.09  67.81  68.45  69.01  69.49  69.90  70.23  70.48  70.67  70.78  70.81  70.77  70.66  70.48  70.22  69.90  69.50  69.03  68.49  67.88  67.20  66.46  65.65  64.79  63.87  62.90  61.88  60.82  59.71  58.58  57.42  56.23  55.04  53.84  52.63  51.44  50.26  49.10  47.97  46.88  45.83  44.83  43.88  43.00  42.18  41.43  40.76  40.16  39.64  39.19  38.83  38.54  38.32  38.18  38.11  38.10  38.14  38.24  38.37  38.53  38.72  38.92  39.11  39.29  39.43  39.53  39.56  39.51  39.36  39.07  38.62  37.97  37.09  35.90  34.35  32.31  29.63  26.03  21.03  13.51   0.00
  0.00  16.34  25.84  32.52  37.66  41.81  45.29  48.25  50.84  53.11  55.13  56.94  58.57  60.04  61.37  62.58  63.67  64.66  65.55  66.36  67.07  67.71  68.26  68.74  69.14  69.47  69.72  69.91  70.02  70.05  70.02  69.91  69.73  69.48  69.16  68.77  68.31  67.78  67.18  66.52  65.79  65.00  64.15  63.24  62.29  61.28  60.24  59.15  58.03  56.89  55.73  54.55  53.37  52.18  51.01  49.84  48.70  47.59  46.51  45.48  44.49  43.56  42.69  41.88  41.15  40.48  39.89  39.37  38.93  38.57  38.29  38.07  37.93  37.86  37.84  37.88  37.97  38.10  38.26  38.44  38.63  38.81  38.98  39.12  39.21  39.24  39.18  39.02  38.73  38.28  37.63  36.75  35.57  34.02  32.00  29.34  25.78  20.82  13.38   0.00
  0.00  16.13  25.51  32.11  37.18  41.28  44.71  47.64  50.19  52.44  54.43  56.22  57.83  59.28  60.59  61.79  62.87  63.84  64.73  65.52  66.23  66.86  67.40  67.88  68.28  68.60  68.85  69.04  69.15  69.18  69.15  69.05  68.88  68.63  68.32  67.93  67.48  66.96  66.37  65.72  65.01  64.23  63.40  62.51  61.57  60.58  59.55  58.49  57.39  56.27  55.12  53.97  52.80  51.64  50.48  49.34  48.22  47.12  46.06  45.05  44.08  43.16  42.30  41.51  40.78  40.13  39.54  39.03  38.60  38.24  37.96  37.75  37.61  37.53  37.51  37.55  37.64  37.76  37.91  38.08  38.26  38.44  38.60  38.73  38.82  38.84  38.78  38.61  38.32  37.87  37.22  36.34  35.18  33.64  31.64  29.01  25.48  20.58  13.22   0.00
  0.00  15.90  25.14  31.64  36.64  40.68  44.06  46.95  49.46  51.67  53.64  55.40  56.99  58.42  59.71  60.89  61.95  62.92  63.79  64.57  65.27  65.89  66.43  66.90  67.29  67.61  67.86  68.04  68.15  68.19  68.16  68.07  67.90  67.66  67.35  66.98  66.53  66.02  65.45  64.81  64.11  63.35  62.53  61.66  60.74  59.77  58.76  57.72  56.64  55.54  54.42  53.28  52.14  51.00  49.86  48.74  47.64  46.56  45.52  44.52  43.57  42.67  41.83  41.05  40.33  39.69  39.12  38.62  38.19  37.84  37.56  37.35  37.21  37.13  37.11  37.14  37.22  37.34  37.49  37.65  37.83  38.00  38.15  38.27  38.35  38.37  38.30  38.13  37.84  37.39  36.75  35.87  34.72  33.20  31.22  28.62  25.14  20.30  13.04   0.00
  0.00  15.63  24.72  31.11  36.03  40.00  43.32  46.16  48.63  50.81  52.74  54.48  56.03  57.44  58.72  59.87  60.92  61.87  62.72  63.49  64.18  64.79  65.33  65.79  66.17  66.49  66.74  66.92  67.03  67.07  67.04  66.95  66.78  66.55  66.25  65.89  65.45  64.96  64.39  63.77  63.08  62.34  61.54  60.69  59.78  58.84  57.85  56.83  55.77  54.69  53.59  52.48  51.36  50.24  49.13  48.03  46.95  45.90  44.88  43.90  42.97  42.09  41.26  40.50  39.80  39.16  38.60  38.11  37.69  37.34  37.07  36.86  36.72  36.64  36.62  36.65  36.73  36.84  36.98  37.14  37.30  37.47  37.61  37.73  37.80  37.81  37.74  37.57  37.27  36.83  36.19  35.33  34.18  32.69  30.73  28.17  24.74  19.98  12.83   0.00
  0.00  15.33  24.24  30.52  35.34  39.23  42.49  45.28  47.70  49.84  51.73  53.43  54.96  56.34  57.59  58.73  59.75  60.68  61.52  62.28  62.96  63.55  64.08  64.53  64.91  65.23  65.47  65.65  65.76  65.80  65.77  65.68  65.52  65.30  65.01  64.65  64.23  63.74  63.20  62.59  61.92  61.19  60.41  59.58  58.70  57.77  56.81  55.81  54.78  53.72  52.65  51.56  50.47  49.37  48.29  47.21  46.16  45.13  44.13  43.18  42.27  41.40  40.59  39.85  39.16  38.54  37.99  37.51  37.10  36.75  36.48  36.28  36.14  36.06  36.04  36.07  36.14  36.24  36.38  36.53  36.69  36.85  36.99  37.10  37.16  37.17  37.09  36.92  36.62  36.18  35.55  34.70  33.57  32.10  30.18  27.66  24.29  19.61  12.60   0.00
  0.00  15.00  23.71  29.84  34.56  38.37  41.56  44.28  46.65  48.74  50.59  52.25  53.75  55.10  56.32  57.43  58.44  59.35  60.17  60.91  61.57  62.16  62.67  63.11  63.49  63.80  64.04  64.21  64.32  64.36  64.34  64.25  64.10  63.88  63.60  63.25  62.84  62.37  61.84  61.24  60.59  59.88  59.12  58.31  57.46  56.55  55.61  54.64  53.64  52.61  51.56  50.50  49.44  48.37  47.31  46.27  45.24  44.24  43.27  42.33  41.44  40.60  39.81  39.08  38.41  37.81  37.27  36.80  36.40  36.06  35.80  35.60  35.46  35.38  35.36  35.38  35.45  35.55  35.68  35.82  35.98  36.13  36.26  36.36  36.42  36.42  36.35  36.17  35.88  35.44  34.82  33.98  32.88  31.43  29.55  27.08  23.78  19.20  12.33   0.00
  0.00  14.61  23.11  29.08  33.68  37.39  40.50  43.16  45.47  47.50  49.31  50.93  52.38  53.70  54.89  55.97  56.96  57.84  58.65  59.37  60.01  60.58  61.08  61.52  61.88  62.18  62.42  62.59  62.70  62.74  62.72  62.63  62.49  62.28  62.00  61.67  61.27  60.81  60.30  59.72  59.09  58.40  57.66  56.88  56.04  55.17  54.26  53.31  52.34  51.34  50.32  49.29  48.26  47.22  46.19  45.18  44.18  43.20  42.26  41.35  40.49  39.67  38.91  38.19  37.54  36.95  36.43  35.97  35.58  35.26  35.00  34.80  34.67  34.59  34.56  34.58  34.65  34.74  34.87  35.00  35.15  35.29  35.42  35.51  35.57  35.56  35.49  35.31  35.02  34.59  33.98  33.16  32.08  30.67  28.83  26.42  23.20  18.73  12.03   0.00
  0.00  14.18  22.43  28.23  32.69  36.29  39.31  41.88  44.13  46.10  47.86  49.43  50.84  52.12  53.28  54.33  55.28  56.14  56.92  57.62  58.25  58.80  59.29  59.71  60.07  60.36  60.59  60.75  60.86  60.90  60.88  60.80  60.66  60.46  60.20  59.87  59.49  59.05  58.55  57.99  57.38  56.72  56.00  55.24  54.44  53.59  52.71  51.79  50.85  49.89  48.90  47.91  46.91  45.91  44.91  43.93  42.96  42.02  41.10  40.23  39.39  38.60  37.85  37.17  36.54  35.96  35.46  35.01  34.63  34.32  34.06  33.87  33.74  33.66  33.64  33.66  33.72  33.81  33.92  34.06  34.19  34.33  34.45  34.54  34.59  34.58  34.50  34.33  34.04  33.62  33.02  32.22  31.17  29.79  28.00  25.66  22.53  18.19  11.68   0.00
  0.00  13.70  21.65  27.26  31.56  35.04  37.95  40.44  42.61  44.51  46.21  47.73  49.09  50.33  51.44  52.46  53.38  54.21  54.96  55.64  56.24  56.78  57.25  57.66  58.00  58.29  58.51  58.67  58.77  58.82  58.80  58.72  58.59  58.39  58.14  57.83  57.46  57.04  56.56  56.02  55.44  54.80  54.11  53.38  52.60  51.79  50.94  50.06  49.15  48.22  47.28  46.32  45.36  44.39  43.43  42.48  41.55  40.65  39.77  38.92  38.11  37.35  36.64  35.97  35.37  34.82  34.33  33.90  33.53  33.23  32.98  32.80  32.67  32.59  32.57  32.58  32.64  32.72  32.83  32.96  33.09  33.21  33.33  33.41  33.46  33.44  33.36  33.19  32.91  32.50  31.93  31.15  30.13  28.80  27.06  24.80  21.77  17.57  11.29   0.00
  0.00  13.14  20.77  26.15  30.28  33.62  36.41  38.80  40.87  42.70  44.33  45.79  47.10  48.28  49.35  50.33  51.21  52.01  52.73  53.38  53.96  54.48  54.93  55.32  55.65  55.92  56.14  56.29  56.39  56.43  56.42  56.35  56.22  56.03  55.79  55.50  55.15  54.74  54.28  53.77  53.21  52.60  51.94  51.24  50.50  49.72  48.91  48.07  47.20  46.31  45.41  44.49  43.57  42.65  41.73  40.82  39.93  39.06  38.22  37.41  36.64  35.91  35.22  34.59  34.01  33.48  33.01  32.60  32.25  31.96  31.72  31.54  31.42  31.35  31.32  31.33  31.38  31.46  31.57  31.68  31.81  31.93  32.03  32.11  32.15  32.14  32.05  31.89  31.62  31.22  30.66  29.91  28.93  27.65  25.99  23.81  20.90  16.87  10.83   0.00
  0.00  12.50  19.76  24.87  28.80  31.98  34.63  36.91  38.88  40.62  42.17  43.55  44.80  45.93  46.95  47.87  48.71  49.47  50.16  50.78  51.33  51.82  52.25  52.63  52.94  53.20  53.41  53.55  53.65  53.69  53.68  53.61  53.49  53.32  53.09  52.81  52.47  52.09  51.66  51.17  50.64  50.06  49.44  48.77  48.07  47.33  46.56  45.76  44.94  44.10  43.24  42.37  41.50  40.62  39.75  38.89  38.04  37.22  36.42  35.65  34.92  34.23  33.58  32.97  32.42  31.92  31.47  31.08  30.75  30.47  30.25  30.08  29.96  29.89  29.86  29.87  29.92  29.99  30.09  30.20  30.32  30.43  30.52  30.59  30.63  30.61  30.53  30.37  30.11  29.73  29.20  28.48  27.55  26.32  24.74  22.66  19.90  16.06  10.31   0.00
  0.00  11.75  18.58  23.39  27.08  30.07  32.57  34.71  36.57  38.20  39.66  40.96  42.13  43.19  44.15  45.02  45.81  46.53  47.17  47.75  48.28  48.74  49.14  49.49  49.79  50.04  50.23  50.37  50.46  50.50  50.49  50.43  50.31  50.15  49.94  49.67  49.36  49.00  48.60  48.14  47.64  47.10  46.52  45.89  45.24  44.54  43.82  43.07  42.30  41.51  40.70  39.89  39.07  38.25  37.43  36.62  35.83  35.06  34.31  33.59  32.90  32.25  31.64  31.07  30.55  30.08  29.66  29.30  28.98  28.72  28.51  28.35  28.24  28.17  28.14  28.15  28.20  28.26  28.35  28.45  28.56  28.66  28.75  28.82  28.85  28.83  28.75  28.60  28.35  27.99  27.49  26.81  25.93  24.78  23.28  21.33  18.72  15.11   9.70   0.00
  0.00  10.87  17.19  21.64  25.06  27.82  30.13  32.11  33.83  35.34  36.69  37.89  38.98  39.96  40.85  41.65  42.38  43.05  43.64  44.18  44.66  45.09  45.47  45.79  46.07  46.29  46.47  46.60  46.69  46.73  46.72  46.66  46.56  46.41  46.21  45.97  45.68  45.35  44.97  44.56  44.10  43.60  43.06  42.48  41.88  41.24  40.57  39.88  39.17  38.44  37.69  36.94  36.18  35.43  34.67  33.93  33.19  32.48  31.79  31.12  30.49  29.89  29.32  28.80  28.32  27.89  27.50  27.16  26.87  26.63  26.43  26.28  26.18  26.11  26.09  26.10  26.14  26.20  26.28  26.37  26.47  26.56  26.64  26.70  26.72  26.71  26.63  26.49  26.26  25.92  25.45  24.83  24.01  22.94  21.55  19.74  17.33  13.99   8.98   0.00
  0.00   9.81  15.51  19.53  22.61  25.11  27.19  28.97  30.53  31.89  33.11  34.19  35.17  36.06  36.86  37.59  38.25  38.84  39.38  39.87  40.30  40.69  41.03  41.32  41.57  41.78  41.94  42.06  42.13  42.17  42.16  42.11  42.02  41.88  41.71  41.49  41.23  40.93  40.60  40.22  39.81  39.36  38.87  38.36  37.81  37.23  36.63  36.01  35.37  34.71  34.04  33.37  32.68  32.00  31.32  30.65  29.99  29.35  28.73  28.13  27.55  27.01  26.51  26.03  25.60  25.21  24.86  24.56  24.29  24.07  23.90  23.76  23.67  23.61  23.59  23.59  23.63  23.68  23.75  23.83  23.92  24.00  24.07  24.12  24.15  24.13  24.06  23.93  23.72  23.41  22.99  22.42  21.68  20.71  19.46  17.83  15.65  12.63   8.11   0.00
  0.00   8.49  13.42  16.89  19.56  21.72  23.52  25.07  26.41  27.59  28.64  29.58  30.43  31.20  31.89  32.52  33.09  33.61  34.07  34.49  34.87  35.21  35.50  35.75  35.97  36.15  36.29  36.39  36.46  36.49  36.48  36.44  36.36  36.24  36.09  35.90  35.68  35.42  35.13  34.81  34.45  34.06  33.64  33.20  32.73  32.23  31.71  31.18  30.62  30.05  29.48  28.89  28.30  27.71  27.13  26.55  25.98  25.42  24.89  24.37  23.87  23.41  22.97  22.56  22.19  21.85  21.55  21.28  21.06  20.87  20.71  20.60  20.51  20.46  20.44  20.45  20.48  20.52  20.58  20.65  20.73  20.80  20.86  20.90  20.92  20.90  20.84  20.72  20.54  20.27  19.91  19.41  18.77  17.93  16.85  15.43  13.54  10.93   7.02   0.00
  0.00   6.76  10.68  13.44  15.57  17.29  18.72  19.95  21.02  21.96  22.79  23.54  24.22  24.83  25.38  25.88  26.33  26.75  27.12  27.45  27.75  28.02  28.25  28.46  28.63  28.77  28.88  28.96  29.02  29.04  29.04  29.00  28.94  28.85  28.73  28.58  28.40  28.20  27.97  27.71  27.43  27.12  26.79  26.43  26.06  25.66  25.25  24.83  24.39  23.94  23.48  23.01  22.55  22.08  21.61  21.15  20.70  20.26  19.83  19.42  19.03  18.65  18.31  17.98  17.69  17.42  17.18  16.97  16.79  16.63  16.51  16.42  16.35  16.31  16.30  16.30  16.32  16.36  16.41  16.46  16.52  16.57  16.62  16.65  16.66  16.65  16.60  16.51  16.36  16.15  15.85  15.46  14.95  14.28  13.42  12.29  10.79   8.70   5.59   0.00
  0.00   4.28   6.77   8.52   9.86  10.95  11.86  12.64  13.32  13.91  14.44  14.92  15.34  15.73  16.08  16.40  16.68  16.94  17.18  17.39  17.58  17.75  17.90  18.03  18.14  18.23  18.30  18.35  18.38  18.40  18.40  18.38  18.34  18.28  18.20  18.11  18.00  17.87  17.72  17.56  17.38  17.19  16.98  16.75  16.52  16.27  16.01  15.74  15.46  15.17  14.88  14.59  14.29  14.00  13.70  13.41  13.13  12.85  12.58  12.32  12.07  11.83  11.61  11.41  11.22  11.05  10.90  10.77  10.65  10.56  10.48  10.42  10.38  10.35  10.34  10.34  10.36  10.38  10.41  10.44  10.48  10.51  10.54  10.56  10.57  10.56  10.53  10.47  10.37  10.24  10.05   9.80   9.48   9.05   8.50   7.79   6.84   5.52   3.54   0.00
  0.00   0.00   0.00   0.00   0.00   0.00   0.00   0.00   0.00   0.00   0.00   0.00   0.00   0.00   0.00   0.00   0.00   0.00   0.00   0.00   0.00   0.00   0.00   0.00   0.00   0.00   0.00   0.00   0.00   0.00   0.00   0.00   0.00   0.00   0.00   0.00   0.00   0.00   0.00   0.00   0.00   0.00   0.00   0.00   0.00   0.00   0.00   0.00   0.00   0.00   0.00   0.00   0.00   0.00   0.00   0.00   0.00   0.00   0.00   0.00   0.00   0.00   0.00   0.00   0.00   0.00   0.00   0.00   0.00   0.00   0.00   0.00   0.00   0.00   0.00   0.00   0.00   0.00   0.00   0.00   0.00   0.00   0.00   0.00   0.00   0.00   0.00   0.00   0.00   0.00   0.00   0.00   0.00   0.00   0.00   0.00   0.00   0.00   0.00   0.00
